104.09000682347319 34.53630246444605 1.489236 5 12 1
104.08996860223625 34.536107106021994 1.489236 5 12 1
104.0842714241437 34.53570318135696 1.489236 5 12 1
104.08330940363878 34.53531865979934 0.752658 5 12 1
104.08321764355642 34.5345673299791 0.752658 5 12 1
104.07817524861173 34.53678229919305 0.752658 5 12 1
104.07783779566684 34.5329915495142 0.752658 5 12 1
104.07809657662023 34.532717172735104 0.752658 5 12 1
104.08057597447456 34.53324806960105 0.752658 5 12 1
104.08153245135473 34.532561408402735 0.752658 5 12 1
104.0824886328691 34.53351711407018 0.752658 5 12 1
104.08238552900198 34.53325327616948 0.752658 5 12 1
104.08286871543058 34.533118088578306 0.752658 5 12 1
104.08322508080917 34.533608698214934 0.752658 5 12 1
104.08438268825077 34.5334164685514 1.489236 5 12 1
104.08787141852605 34.5337770230251 1.489236 5 12 1
104.08900424675382 34.534117755038 1.489236 5 12 1
104.09235697644775 34.53260790955338 1.489236 5 12 1
104.09760894131459 34.532584913192856 1.489236 5 12 1
104.09759125956086 34.53294119645495 1.489236 5 12 1
104.09757640524838 34.53280215867895 1.489236 5 12 1
104.10104588866834 34.532668893585736 1.489236 5 12 1
104.10173929426999 34.53317063023364 1.489236 5 12 1
104.10262640784049 34.53394217248013 1.489236 5 12 1
104.10083313285627 34.53180982227789 1.489236 5 12 1
104.10395575562603 34.53377053374615 1.489236 5 12 1
104.10415372149713 34.53295831400376 1.489236 5 12 1
104.1055021601122 34.53266447497734 1.489236 5 12 1
104.11984508486957 34.533068737810325 1.489236 5 12 1
104.11896390602024 34.53211519635721 1.489236 5 12 1
104.12769808304952 34.534194235145804 2.012032 5 12 1
104.13095082111406 34.5332444284669 2.012032 5 12 1
104.13123810828411 34.532920371748766 2.012032 5 12 1
104.13089963367418 34.53354854456451 2.012032 5 12 1
104.12982578983151 34.53370402093976 2.012032 5 12 1
104.13061910316424 34.53369805686536 2.012032 5 12 1
104.130830547526 34.53365426484308 2.012032 5 12 1
104.13989157869227 34.53366432870452 2.012032 5 12 1
104.13856170711375 34.533842459426786 2.012032 5 12 1
104.14621979831443 34.53306541110887 2.012032 5 12 1
104.15154878271474 34.5323094792029 2.012032 5 12 1
104.15261478549672 34.533157394963226 2.012032 5 12 1
104.15309385871602 34.5309967044467 2.012032 5 12 1
104.14440930721085 34.53117809862877 2.012032 5 12 1
104.14467424216056 34.53145429193638 2.012032 5 12 1
104.14057678594496 34.5313627049366 2.012032 5 12 1
104.14035245386921 34.53137973413535 2.012032 5 12 1
104.1414900785032 34.53144109538696 2.012032 5 12 1
104.13080643560183 34.52940061810694 2.012032 5 12 1
104.12307349560662 34.53177578809001 1.489236 5 12 1
104.10947549403238 34.53137880292991 1.489236 5 12 1
104.11004932323932 34.52959139381861 1.489236 5 12 1
104.09958199265121 34.53053608061126 1.489236 5 12 1
104.09609853102693 34.53150046069257 1.489236 5 12 1
104.09213784213482 34.53115625475928 1.489236 5 12 1
104.07900036939995 34.52984878743915 0.752658 5 12 1
104.07947628491173 34.52985597776122 0.752658 5 12 1
104.07933026573852 34.529636584768014 0.752658 5 12 1
104.0767809733371 34.5288214025902 0.752658 5 12 1
104.07641420292299 34.52753533513962 0.752658 5 12 1
104.08629131938312 34.527989006109784 1.489236 5 12 1
104.08649852253195 34.52774513516635 1.489236 5 12 1
104.08739273045194 34.527581138877906 1.489236 5 12 1
104.08699325090791 34.52761253938918 1.489236 5 12 1
104.08736083192349 34.52674103396291 1.489236 5 12 1
104.0849532518685 34.52672878640601 1.489236 5 12 1
104.09003260929937 34.52631270156422 1.489236 5 12 1
104.08920755746 34.52825458297832 1.489236 5 12 1
104.09832611878392 34.527691984380205 1.489236 5 12 1
104.10578339005589 34.52679578280771 1.489236 5 12 1
104.1086842075286 34.52765198639334 1.489236 5 12 1
104.10772719359396 34.52589649065728 1.489236 5 12 1
104.10775966502368 34.52569191365014 1.489236 5 12 1
104.11107287394233 34.52779418229536 1.489236 5 12 1
104.110152622039 34.52862504191076 1.489236 5 12 1
104.12540931821819 34.528269004318936 2.012032 5 12 1
104.13367091283159 34.52815286257217 2.012032 5 12 1
104.15582825419246 34.52530126928646 2.012032 5 12 1
104.15609569411407 34.52580038602535 2.012032 5 12 1
104.15570567460776 34.52604755692964 2.012032 5 12 1
104.15574571029704 34.52469000142892 2.012032 5 12 1
104.15564471028209 34.52426357108327 2.012032 5 12 1
104.15047510135865 34.52561706446799 2.012032 5 12 1
104.15359719315099 34.525242594198126 2.012032 5 12 1
104.1431731253245 34.525353399848484 2.012032 5 12 1
104.14230743617378 34.52606044779883 2.012032 5 12 1
104.14150912483287 34.526297442657125 2.012032 5 12 1
104.14333988411585 34.52601615504334 2.012032 5 12 1
104.14352173531786 34.52601565635628 2.012032 5 12 1
104.14180479173784 34.52486958748588 2.012032 5 12 1
104.13505351381183 34.524265647580116 2.012032 5 12 1
104.13151107856542 34.52449733380019 2.012032 5 12 1
104.12823244564817 34.52597388041687 2.012032 5 12 1
104.13069921988057 34.525567642603406 2.012032 5 12 1
104.12681166448247 34.52420522313297 2.012032 5 12 1
104.12072885577825 34.52484826373025 1.489236 5 12 1
104.12082215866629 34.52479554282132 1.489236 5 12 1
104.11594925656226 34.52505460504397 1.489236 5 12 1
104.11580107509259 34.5250666747558 1.489236 5 12 1
104.11624695901766 34.52499965839366 1.489236 5 12 1
104.1165266587374 34.525062969763596 1.489236 5 12 1
104.11672617787188 34.52511066799146 1.489236 5 12 1
104.11482913198795 34.52550003918724 1.489236 5 12 1
104.11514311469679 34.52562159571049 1.489236 5 12 1
104.11438160228103 34.52531368678381 1.489236 5 12 1
104.1127034944833 34.5241072176132 1.489236 5 12 1
104.1112234863869 34.523833353663164 1.489236 5 12 1
104.11066807731771 34.523737539328685 1.489236 5 12 1
104.1142929029449 34.524641939301446 1.489236 5 12 1
104.11205840821478 34.523976572837974 1.489236 5 12 1
104.11340834217664 34.524396747154825 1.489236 5 12 1
104.10566990743044 34.524563047922875 1.489236 5 12 1
104.09954777803864 34.523481971718056 1.489236 5 12 1
104.10077107304416 34.52275659725826 1.489236 5 12 1
104.1005521386818 34.5228978772589 1.489236 5 12 1
104.10087820526631 34.52206996796512 1.489236 5 12 1
104.09943020056475 34.522601768658404 1.489236 5 12 1
104.09964632034524 34.522930652927755 1.489236 5 12 1
104.09884130470722 34.523603165616954 1.489236 5 12 1
104.09861719734641 34.52401836669414 1.489236 5 12 1
104.09762124262411 34.524364468501474 1.489236 5 12 1
104.097848076558 34.5239475314111 1.489236 5 12 1
104.09833670135554 34.52363173167199 1.489236 5 12 1
104.09650879155699 34.5248373403167 1.489236 5 12 1
104.09524282359779 34.52494749358302 1.489236 5 12 1
104.09478600051725 34.52502878108551 1.489236 5 12 1
104.09567274121498 34.52474019257936 1.489236 5 12 1
104.09596497877578 34.52451947413251 1.489236 5 12 1
104.09626029258125 34.52445285271131 1.489236 5 12 1
104.09601955464224 34.525010211281085 1.489236 5 12 1
104.09309358513728 34.524900265803396 1.489236 5 12 1
104.09272553470409 34.524008274805844 1.489236 5 12 1
104.0906241996843 34.52398704317542 1.489236 5 12 1
104.09211395793508 34.52445893494356 1.489236 5 12 1
104.09207962938615 34.52397622192724 1.489236 5 12 1
104.09121453692926 34.523770155212915 1.489236 5 12 1
104.0894571862163 34.52430966088203 1.489236 5 12 1
104.08566791190093 34.5245699603079 1.489236 5 12 1
104.08693580042949 34.52435941922806 1.489236 5 12 1
104.08414426166726 34.52414921429675 1.489236 5 12 1
104.08216180447165 34.52418484502734 0.752658 5 12 1
104.08316636982427 34.52387898887041 0.752658 5 12 1
104.08284765766675 34.52262355268141 0.752658 5 12 1
104.0771522317005 34.525960222038464 0.752658 5 12 1
104.08101980304994 34.521585709663775 0.752658 5 12 1
104.07879330232856 34.52099109942336 0.752658 5 12 1
104.08219449167305 34.52258951339629 0.752658 5 12 1
104.0829381099138 34.522109387628845 0.752658 5 12 1
104.08319993159834 34.52296193814645 0.752658 5 12 1
104.09283386663662 34.520672421955275 1.489236 5 12 1
104.09355294321836 34.521685889871414 1.489236 5 12 1
104.09310121957905 34.522168656716644 1.489236 5 12 1
104.09509527102057 34.52165531993885 1.489236 5 12 1
104.09534139228907 34.521072411541525 1.489236 5 12 1
104.09517875681996 34.52059271214978 1.489236 5 12 1
104.09514325283634 34.522978793613845 1.489236 5 12 1
104.09462168273397 34.522136722452416 1.489236 5 12 1
104.10102395373568 34.52102468347069 1.489236 5 12 1
104.10132841064954 34.520408348161205 1.489236 5 12 1
104.10150276515904 34.52030820342926 1.489236 5 12 1
104.1030509844247 34.52173391627316 1.489236 5 12 1
104.10239986795207 34.52176154174657 1.489236 5 12 1
104.10279513425186 34.5216893563029 1.489236 5 12 1
104.09886711732594 34.52226865171195 1.489236 5 12 1
104.0989343235677 34.52184690476575 1.489236 5 12 1
104.10009021183679 34.52322031489259 1.489236 5 12 1
104.09927117332936 34.523351243518185 1.489236 5 12 1
104.11008071827932 34.52284517964513 1.489236 5 12 1
104.10989236029808 34.52219389355696 1.489236 5 12 1
104.10956193573865 34.52116154956508 1.489236 5 12 1
104.10942611525914 34.52101545223871 1.489236 5 12 1
104.1128909738727 34.52287575858139 1.489236 5 12 1
104.11396528358046 34.52333004061007 1.489236 5 12 1
104.11312138865425 34.522634984815774 1.489236 5 12 1
104.11719166560087 34.52123671810437 1.489236 5 12 1
104.1171320137255 34.52156374770882 1.489236 5 12 1
104.11665172674635 34.52183082815053 1.489236 5 12 1
104.11735154255567 34.520883978803326 1.489236 5 12 1
104.1194674271476 34.520703624898005 1.489236 5 12 1
104.11955156456423 34.52040450632304 1.489236 5 12 1
104.1191896759784 34.521200853358415 1.489236 5 12 1
104.11837141043765 34.52043808611816 1.489236 5 12 1
104.11546140878387 34.522552673589736 1.489236 5 12 1
104.11554915332009 34.521760295281894 1.489236 5 12 1
104.11567167927859 34.521340692455674 1.489236 5 12 1
104.11552840210369 34.52098908892584 1.489236 5 12 1
104.11997580204823 34.51971756729159 1.489236 5 12 1
104.1199489023165 34.52013585398495 1.489236 5 12 1
104.1197569322749 34.51994538039431 1.489236 5 12 1
104.11960393057817 34.52001191392349 1.489236 5 12 1
104.11804586387302 34.52114774221519 1.489236 5 12 1
104.11758375534822 34.52144607568638 1.489236 5 12 1
104.11706845848454 34.52227508130464 1.489236 5 12 1
104.11631603666626 34.52282164675453 1.489236 5 12 1
104.11501591713265 34.5220028178105 1.489236 5 12 1
104.11511388416451 34.521727230955506 1.489236 5 12 1
104.11517379948715 34.52142989017581 1.489236 5 12 1
104.11489812509821 34.520943410749155 1.489236 5 12 1
104.11694907658347 34.522544331147124 1.489236 5 12 1
104.12158044994717 34.521281235921165 1.489236 5 12 1
104.12232815730671 34.52104022878412 1.489236 5 12 1
104.13718916865054 34.523098485961114 2.012032 5 12 1
104.1380292965305 34.52226179165497 2.012032 5 12 1
104.13835755687465 34.5222806274976 2.012032 5 12 1
104.13852663950435 34.52226304039928 2.012032 5 12 1
104.13814016318867 34.52126341103835 2.012032 5 12 1
104.13828435461356 34.521275200225055 2.012032 5 12 1
104.13841417040922 34.52123438373041 2.012032 5 12 1
104.13847615227566 34.521004702355654 2.012032 5 12 1
104.13864818097127 34.52076604694636 2.012032 5 12 1
104.13882163506014 34.52070830700277 2.012032 5 12 1
104.14279907906412 34.52215933952312 2.012032 5 12 1
104.14287750907525 34.522565197711735 2.012032 5 12 1
104.14278390823226 34.523220691855606 2.012032 5 12 1
104.14227106799794 34.521490066352065 2.012032 5 12 1
104.13795004348638 34.5230175141815 2.012032 5 12 1
104.14721292496067 34.522568029075764 2.012032 5 12 1
104.14834809383053 34.523018885380104 2.012032 5 12 1
104.14793367886362 34.52279057952948 2.012032 5 12 1
104.15426114372585 34.52337396039029 2.012032 5 12 1
104.15448053431457 34.52342276652624 2.012032 5 12 1
104.15500372704267 34.52291728387156 2.012032 5 12 1
104.15628028087411 34.522922963378946 2.012032 5 12 1
104.15633272323652 34.52276614433563 2.012032 5 12 1
104.15637875329391 34.52264481218516 2.012032 5 12 1
104.15586475823773 34.52163907022406 2.012032 5 12 1
104.16030796781806 34.52362872292665 2.012032 5 12 1
104.16013693010075 34.5234901428703 2.012032 5 12 1
104.16091438242148 34.52385474303747 2.012032 5 12 1
104.1655812541197 34.52374519923051 2.012032 5 12 1
104.19634984025834 34.51897522509881 2.151743 5 12 1
104.18030785850226 34.519056654743146 2.151743 5 12 1
104.15429794614428 34.51927075083224 2.012032 5 12 1
104.1545443664609 34.51927777500479 2.012032 5 12 1
104.1550495813967 34.519261899234685 2.012032 5 12 1
104.15534187278513 34.51930882396226 2.012032 5 12 1
104.15430323506146 34.51893324510522 2.012032 5 12 1
104.15386120190911 34.51955248475735 2.012032 5 12 1
104.15442397434462 34.51958330158783 2.012032 5 12 1
104.15477104692343 34.51918304267266 2.012032 5 12 1
104.15519667231992 34.519943496205734 2.012032 5 12 1
104.15446871404525 34.518456273736646 2.012032 5 12 1
104.15601248743788 34.5206098983513 2.012032 5 12 1
104.15476477352863 34.51979271539223 2.012032 5 12 1
104.1512341597677 34.51822781066579 2.012032 5 12 1
104.15203051190467 34.51857139691852 2.012032 5 12 1
104.14946778375744 34.5200219612164 2.012032 5 12 1
104.1490817982867 34.51908197443049 2.012032 5 12 1
104.14922932372846 34.51925612536771 2.012032 5 12 1
104.14927631955274 34.51949330179589 2.012032 5 12 1
104.14925456753149 34.51940142058622 2.012032 5 12 1
104.14896892971012 34.519267754766624 2.012032 5 12 1
104.148932532539 34.51914318817787 2.012032 5 12 1
104.14893400452118 34.51900707036918 2.012032 5 12 1
104.14878092426899 34.51979682558012 2.012032 5 12 1
104.13954039324967 34.519393908981414 2.012032 5 12 1
104.13105312820736 34.518012510298284 2.012032 5 12 1
104.13089663947098 34.518169738440925 2.012032 5 12 1
104.1302821625922 34.51875261816666 2.012032 5 12 1
104.1304068090214 34.51858725471776 2.012032 5 12 1
104.13061989991614 34.51843499090672 2.012032 5 12 1
104.12959980461298 34.51816296858741 2.012032 5 12 1
104.12096239012006 34.51884993165136 1.489236 5 12 1
104.1215893994164 34.51853284039783 1.489236 5 12 1
104.12183468807524 34.51841118917578 1.489236 5 12 1
104.1199686025146 34.518839882289846 1.489236 5 12 1
104.12009320253286 34.51841106413158 1.489236 5 12 1
104.12052282099445 34.519339442867405 1.489236 5 12 1
104.12066084357505 34.51930122683658 1.489236 5 12 1
104.12012107834877 34.517695052718764 1.489236 5 12 1
104.12316011945546 34.51740027705079 1.489236 5 12 1
104.12294472544608 34.517541905198954 1.489236 5 12 1
104.12242927157996 34.51755648837507 1.489236 5 12 1
104.12250620420158 34.51711058973021 1.489236 5 12 1
104.12229989731225 34.51733872703556 1.489236 5 12 1
104.1225161147518 34.51694751483795 1.489236 5 12 1
104.1224009585396 34.51679562743489 1.489236 5 12 1
104.12261885855818 34.51672155089652 1.489236 5 12 1
104.12274489287223 34.51669298391566 1.489236 5 12 1
104.12264873255913 34.51641304965552 1.489236 5 12 1
104.12283913126333 34.5163738998107 1.489236 5 12 1
104.12285661477156 34.5159395621947 1.489236 5 12 1
104.12256162655612 34.51830624958961 1.489236 5 12 1
104.12422797172874 34.518923982493995 1.489236 5 12 1
104.12241622787087 34.51895591638185 1.489236 5 12 1
104.12102078618818 34.51980202197719 1.489236 5 12 1
104.12368536242218 34.51985114354886 1.489236 5 12 1
104.12347356003175 34.51955382926387 1.489236 5 12 1
104.11875751585573 34.520571605869385 1.489236 5 12 1
104.11884550532044 34.52018153433926 1.489236 5 12 1
104.11920136401483 34.52065900692241 1.489236 5 12 1
104.11524363963208 34.51892272485776 1.489236 5 12 1
104.11490302138496 34.52001789730254 1.489236 5 12 1
104.11487208462343 34.52022206357869 1.489236 5 12 1
104.110244852212 34.51885997495428 1.489236 5 12 1
104.11013667429164 34.519089061503585 1.489236 5 12 1
104.11025843941405 34.519811939870685 1.489236 5 12 1
104.10894799152662 34.52050766844125 1.489236 5 12 1
104.11003211667042 34.518814007229665 1.489236 5 12 1
104.10229462441767 34.518613699142186 1.489236 5 12 1
104.10461722578056 34.51734027597271 1.489236 5 12 1
104.10131389091855 34.51958141325956 1.489236 5 12 1
104.10249873703411 34.518474074887564 1.489236 5 12 1
104.10382033849862 34.518054282417914 1.489236 5 12 1
104.10272630408411 34.51782035312972 1.489236 5 12 1
104.10372953975074 34.517675384884214 1.489236 5 12 1
104.09853445064998 34.51926766869779 1.489236 5 12 1
104.09806924203264 34.518908438913236 1.489236 5 12 1
104.0970157091064 34.51976450673017 1.489236 5 12 1
104.09186900895665 34.518917558048834 1.489236 5 12 1
104.09022346499437 34.51891917243612 1.489236 5 12 1
104.09072961430208 34.519690402402745 1.489236 5 12 1
104.0910343461448 34.51995564078926 1.489236 5 12 1
104.09120020406576 34.51982556747307 1.489236 5 12 1
104.08718257123583 34.518244502044915 1.489236 5 12 1
104.08726980559386 34.51809372259201 1.489236 5 12 1
104.081671929942 34.51893782997782 0.752658 5 12 1
104.08137074896841 34.5201484062246 0.752658 5 12 1
104.08138904563168 34.520044251970035 0.752658 5 12 1
104.08194099178284 34.51833539679098 0.752658 5 12 1
104.0820374659029 34.51804315683148 0.752658 5 12 1
104.08220548292013 34.518905173371834 0.752658 5 12 1
104.08302780376107 34.51930327038066 0.752658 5 12 1
104.08401692358927 34.51855821640804 1.489236 5 12 1
104.08047374201881 34.51911521143594 0.752658 5 12 1
104.08060147934476 34.51901617239871 0.752658 5 12 1
104.08094193564045 34.51842852204871 0.752658 5 12 1
104.07785576818104 34.5186755761081 0.752658 5 12 1
104.07798891516089 34.5185168679417 0.752658 5 12 1
104.07605582618456 34.52037216930856 0.752658 5 12 1
104.07792633677278 34.51888360746153 0.752658 5 12 1
104.07935304176516 34.52019883032462 0.752658 5 12 1
104.08039801614952 34.519584481711014 0.752658 5 12 1
104.08018709974723 34.519353213594826 0.752658 5 12 1
104.08176514416175 34.518526711799005 0.752658 5 12 1
104.08767936229704 34.51650366937918 1.489236 5 12 1
104.09511425372055 34.515582999066766 1.489236 5 12 1
104.12295190211752 34.51663267360432 1.489236 5 12 1
104.12313431946644 34.51558076358385 1.489236 5 12 1
104.12314386961944 34.51527833447547 1.489236 5 12 1
104.12330882069607 34.51449873444712 1.489236 5 12 1
104.12420468793279 34.514578791053296 1.489236 5 12 1
104.12950104741978 34.51576913936246 2.012032 5 12 1
104.15150611170792 34.51666608725399 2.012032 5 12 1
104.15132608054121 34.517322330795 2.012032 5 12 1
104.150683928739 34.51682819222457 2.012032 5 12 1
104.15036960085061 34.5167351282239 2.012032 5 12 1
104.15101650609834 34.516562335507636 2.012032 5 12 1
104.15062208260314 34.516278243680766 2.012032 5 12 1
104.15084525446368 34.51626743617111 2.012032 5 12 1
104.15109694194949 34.51634301517809 2.012032 5 12 1
104.15153238687444 34.51653033233395 2.012032 5 12 1
104.1497292984827 34.51784197333871 2.012032 5 12 1
104.14983388155164 34.517799901609116 2.012032 5 12 1
104.14998041181609 34.51772151577018 2.012032 5 12 1
104.15442340141855 34.516309460292085 2.012032 5 12 1
104.1543724450136 34.5157178806281 2.012032 5 12 1
104.15243658804057 34.51565220006287 2.012032 5 12 1
104.1526512710866 34.51538888029538 2.012032 5 12 1
104.15240192557246 34.51596352154912 2.012032 5 12 1
104.15699973821698 34.51589828244716 2.012032 5 12 1
104.15684807868975 34.51571806469932 2.012032 5 12 1
104.1568369985481 34.515547069070024 2.012032 5 12 1
104.1575998504505 34.51818234063873 2.012032 5 12 1
104.15777966201382 34.51798224231111 2.012032 5 12 1
104.15719730883012 34.518184336554675 2.012032 5 12 1
104.16841868224228 34.51815555892067 2.151743 5 12 1
104.16832866935907 34.51801396242165 2.151743 5 12 1
104.16810264805672 34.517861573262145 2.151743 5 12 1
104.16955496819132 34.518136083325075 2.151743 5 12 1
104.16895688199784 34.51824409574248 2.151743 5 12 1
104.16880573644728 34.518279982823444 2.151743 5 12 1
104.16794384336941 34.517398649252335 2.151743 5 12 1
104.16741791993505 34.51655173779402 2.151743 5 12 1
104.16691967311097 34.51617126352011 2.151743 5 12 1
104.17924901682123 34.51700944593354 2.151743 5 12 1
104.17951882656112 34.51707710304341 2.151743 5 12 1
104.17997954555646 34.517564490627876 2.151743 5 12 1
104.18004871806558 34.517691978835536 2.151743 5 12 1
104.17905531252045 34.515090269071635 2.151743 5 12 1
104.17794308145258 34.515635431928274 2.151743 5 12 1
104.17275414748033 34.514229612217434 2.151743 5 12 1
104.17298719217192 34.51463985423097 2.151743 5 12 1
104.1731744668186 34.514635046074936 2.151743 5 12 1
104.16487086945149 34.51508356567904 2.012032 5 12 1
104.15986409228704 34.51445866914757 2.012032 5 12 1
104.15883754498937 34.5144490952064 2.012032 5 12 1
104.15971990414548 34.51412393137213 2.012032 5 12 1
104.15985851700269 34.51408344619213 2.012032 5 12 1
104.16013595968201 34.51408899524483 2.012032 5 12 1
104.16143724636318 34.51455833594557 2.012032 5 12 1
104.16232778693083 34.51447145343701 2.012032 5 12 1
104.15988107472297 34.51324284275986 2.012032 5 12 1
104.15798382397236 34.51450903588163 2.012032 5 12 1
104.15829492450789 34.51436983430944 2.012032 5 12 1
104.15659301019734 34.51468269568429 2.012032 5 12 1
104.1570987419602 34.51428839849927 2.012032 5 12 1
104.15713362599087 34.51412050093634 2.012032 5 12 1
104.15747821102312 34.51402110137058 2.012032 5 12 1
104.15927465317776 34.51282176944204 2.012032 5 12 1
104.15899755136518 34.51332143039674 2.012032 5 12 1
104.15751997561593 34.51300566295536 2.012032 5 12 1
104.16061580065728 34.51405443697226 2.012032 5 12 1
104.15567520456295 34.51424083045256 2.012032 5 12 1
104.15581617348168 34.513823060036 2.012032 5 12 1
104.1528390467139 34.51354108920289 2.012032 5 12 1
104.15169668779725 34.5133898717613 2.012032 5 12 1
104.14946948314031 34.512874552782165 2.012032 5 12 1
104.15082943503403 34.512694006656716 2.012032 5 12 1
104.15109418594143 34.512916395803394 2.012032 5 12 1
104.15128566181436 34.51225539202348 2.012032 5 12 1
104.15099664175247 34.51217742521351 2.012032 5 12 1
104.15078859707212 34.51188783651669 2.012032 5 12 1
104.15107615236495 34.51144630918627 2.012032 5 12 1
104.15138244588891 34.51150104336759 2.012032 5 12 1
104.13568473850503 34.51425962574796 2.012032 5 12 1
104.12968994034017 34.51472437916196 2.012032 5 12 1
104.13154328366963 34.515135777867336 2.012032 5 12 1
104.12455466776277 34.51294098728166 1.489236 5 12 1
104.11976356135115 34.51490240791757 1.489236 5 12 1
104.10789431808028 34.5139661220318 1.489236 5 12 1
104.09232247586257 34.512874476464255 1.489236 5 12 1
104.0805778395865 34.51240094259896 0.752658 5 12 1
104.08173733001881 34.511190093419486 0.752658 5 12 1
104.09833241965413 34.51029137037914 1.489236 5 12 1
104.11281342405341 34.510436846585826 1.489236 5 12 1
104.11296253878935 34.510351603250776 1.489236 5 12 1
104.11323823065639 34.51012158402849 1.489236 5 12 1
104.1223456779206 34.51108805509304 1.489236 5 12 1
104.122441290398 34.51092775162017 1.489236 5 12 1
104.1306779535473 34.51133759236099 2.012032 5 12 1
104.13710340290396 34.51020585179447 2.012032 5 12 1
104.14394967076421 34.51003755301212 2.012032 5 12 1
104.14246155990448 34.5100291793693 2.012032 5 12 1
104.1427822810673 34.51002096359564 2.012032 5 12 1
104.14386508336585 34.50940070479479 2.012032 5 12 1
104.14395528966493 34.508996875193766 2.012032 5 12 1
104.14682227369742 34.50998481880405 2.012032 5 12 1
104.14683469356278 34.50970051456861 2.012032 5 12 1
104.1499792898815 34.51049566598401 2.012032 5 12 1
104.15349761657666 34.510613604801236 2.012032 5 12 1
104.15371769261836 34.51059985694585 2.012032 5 12 1
104.1554878081373 34.510187090697414 2.012032 5 12 1
104.1524778911527 34.510304733902444 2.012032 5 12 1
104.15548253717506 34.512239925817056 2.012032 5 12 1
104.15565518245079 34.51225405107604 2.012032 5 12 1
104.16035684288536 34.51030488478372 2.012032 5 12 1
104.15991822776691 34.510962361487074 2.012032 5 12 1
104.159571711376 34.51108674142719 2.012032 5 12 1
104.16202855346458 34.51182917473116 2.012032 5 12 1
104.16159993615858 34.51197929780127 2.012032 5 12 1
104.15936138418148 34.512071960753445 2.012032 5 12 1
104.15955910927589 34.51212238093131 2.012032 5 12 1
104.16446809537754 34.511405112261805 2.012032 5 12 1
104.1651108428676 34.51210496765536 2.012032 5 12 1
104.16679823027067 34.51083554554134 2.151743 5 12 1
104.16702329738872 34.51102811762951 2.151743 5 12 1
104.18018730199546 34.51214612711297 2.151743 5 12 1
104.16741762039749 34.50864438194174 2.151743 5 12 1
104.1674245292681 34.50856414205887 2.151743 5 12 1
104.16730851927494 34.509134066695346 2.151743 5 12 1
104.16686647707078 34.50878440089502 2.151743 5 12 1
104.1668475724855 34.508617672915555 2.151743 5 12 1
104.16659978985362 34.50922751705954 2.012032 5 12 1
104.15542087619262 34.508560322255306 2.012032 5 12 1
104.15558887755762 34.50929988856736 2.012032 5 12 1
104.15556272547889 34.50908890211588 2.012032 5 12 1
104.15546974486855 34.508353948698634 2.012032 5 12 1
104.14389639845687 34.507247740886406 2.012032 5 12 1
104.14375064259461 34.5086527423391 2.012032 5 12 1
104.1427132350062 34.509677831034075 2.012032 5 12 1
104.14063443086587 34.50880394453212 2.012032 5 12 1
104.14104087118119 34.508629600718585 2.012032 5 12 1
104.14127698066943 34.50851270118758 2.012032 5 12 1
104.14139952960636 34.50840687516655 2.012032 5 12 1
104.1416406659995 34.508185136510555 2.012032 5 12 1
104.14193525575628 34.507947033870316 2.012032 5 12 1
104.14005947897029 34.50564619427588 2.012032 5 12 1
104.14028495571596 34.505575132313474 2.012032 5 12 1
104.14138190048192 34.5053351838893 2.012032 5 12 1
104.14107628991562 34.50560305706449 2.012032 5 12 1
104.13483585792744 34.5087944601515 2.012032 5 12 1
104.1105439000773 34.508977252351116 1.489236 5 12 1
104.09397362959382 34.505324955826275 1.489236 5 12 1
104.09406199501335 34.50511683029936 1.489236 5 12 1
104.0942202386613 34.50534053227257 1.489236 5 12 1
104.11003873734171 34.50446710771614 1.489236 5 12 1
104.11639167791972 34.50589012288376 1.489236 5 12 1
104.11769970172352 34.50616759240332 1.489236 5 12 1
104.11632076792998 34.506570684539035 1.489236 5 12 1
104.11595667438677 34.5042602438807 1.489236 5 12 1
104.15432267628468 34.50499584355558 2.012032 5 12 1
104.16530679705247 34.50571482801667 2.012032 5 12 1
104.16551795983257 34.50553527011112 2.012032 5 12 1
104.18510089370191 34.5054572869281 2.151743 5 12 1
104.18306833616134 34.5072021163397 2.151743 5 12 1
104.19723109901297 34.50487090342735 2.151743 5 12 1
104.19202220392243 34.50300483417889 2.151743 5 12 1
104.18781432775695 34.50340609563476 2.151743 5 12 1
104.18743966235121 34.503585698893126 2.151743 5 12 1
104.18571424363866 34.502388322430555 2.151743 5 12 1
104.18235403168656 34.50172185167116 2.151743 5 12 1
104.18204462888639 34.50193107416262 2.151743 5 12 1
104.17880469768471 34.50283701997522 2.151743 5 12 1
104.17941649853704 34.50261413610226 2.151743 5 12 1
104.18133806979581 34.50304768254834 2.151743 5 12 1
104.17838166754262 34.50362393226365 2.151743 5 12 1
104.179270057564 34.504080277390976 2.151743 5 12 1
104.1760923764417 34.50265169085896 2.151743 5 12 1
104.17633393335034 34.502669756898676 2.151743 5 12 1
104.17666790372706 34.50348165845339 2.151743 5 12 1
104.17087447831001 34.50219518937522 2.151743 5 12 1
104.14091379045983 34.505009876058594 2.012032 5 12 1
104.1374752346152 34.50036127312378 2.012032 5 12 1
104.13775094671038 34.50033887937446 2.012032 5 12 1
104.17316005083396 34.499886190779854 1.0627648 5 10 1
104.17990701791233 34.50069548185759 2.151743 5 12 1
104.18087342048561 34.50125609804848 2.151743 5 12 1
104.1807785015403 34.501579495204695 2.151743 5 12 1
104.18349515692672 34.496553971211185 1.0627648 5 10 1
104.18361211952474 34.49756317660884 1.0627648 5 10 1
104.17714498632981 34.497080199769385 1.0627648 5 10 1
104.17743600063773 34.49670780960871 1.0627648 5 10 1
104.1774194515022 34.496916759982255 1.0627648 5 10 1
104.15609158467707 34.4975113241687 1.078083 5 10 1
104.15167921570867 34.49796882751023 1.078083 5 10 1
104.15167554380702 34.49775418809496 1.078083 5 10 1
104.15170956401181 34.49760014665912 1.078083 5 10 1
104.15169349166678 34.49717529705592 1.078083 5 10 1
104.15223385718879 34.49641113133614 1.078083 5 10 1
104.15209616858749 34.49819445426766 1.078083 5 10 1
104.14310122647863 34.49812228249005 1.078083 5 10 1
104.14390764174968 34.498733503793495 1.078083 5 10 1
104.14449447651681 34.49661775917127 1.078083 5 10 1
104.1392850287934 34.49609671898999 1.078083 5 10 1
104.13922522431481 34.49568150229971 1.078083 5 10 1
104.14047291246594 34.49445290551103 1.078083 5 10 1
104.16496091151792 34.495293738797905 1.078083 5 10 1
104.16658730215245 34.49439176924156 1.078083 5 10 1
104.16796425473315 34.493729681199184 1.0627648 5 10 1
104.16732443691326 34.494059978497845 1.0627648 5 10 1
104.16696507900845 34.494194804745284 1.0627648 5 10 1
104.17866165762509 34.49435826579531 1.0627648 5 10 1
104.17791835157378 34.493840344245356 1.0627648 5 10 1
104.17821760357586 34.49405567938146 1.0627648 5 10 1
104.18015014277563 34.49411996783007 1.0627648 5 10 1
104.18029372001425 34.49376789910098 1.0627648 5 10 1
104.18038096436997 34.49358499553747 1.0627648 5 10 1
104.18708709646141 34.495905753558986 1.0627648 5 10 1
104.18745112065498 34.49511675057084 1.0627648 5 10 1
104.18752028867176 34.49502318690468 1.0627648 5 10 1
104.18696702888825 34.494561336194366 1.0627648 5 10 1
104.19326817244514 34.49162868402963 1.0627648 5 10 1
104.18091760499159 34.4915162147931 1.0627648 5 10 1
104.16210106205249 34.49228016073692 1.078083 5 10 1
104.16131577890098 34.4930356242852 1.078083 5 10 1
104.15659928566069 34.49244096546129 1.078083 5 10 1
104.15138135142004 34.49144088949201 1.078083 5 10 1
104.18813098717706 34.48871020516974 1.0627648 5 10 1
104.18863111135241 34.48854215599658 1.0627648 5 10 1
104.17396071486445 34.48730339281249 1.0627648 5 10 1
104.15360620818629 34.487469866793205 1.078083 5 10 1
104.1504538052623 34.48643222708474 1.078083 5 10 1
104.14197292108102 34.482958854178214 1.078083 5 10 1
104.14302278071258 34.48245515884803 1.078083 5 10 1
104.19142950347715 34.48209238633008 1.0627648 5 10 1
104.146837932194 34.47885531015729 1.078083 5 10 1
104.14685862844851 34.47939571440997 1.078083 5 10 1
104.14335293559088 34.48070600551268 1.078083 5 10 1
104.16866238774249 34.47824449571459 1.0627648 5 10 1
104.18044432218436 34.47787472357175 1.0627648 5 10 1
104.08370813325938 34.579993274327855 2.4675717 5 10 1
104.08766375155462 34.58214266370382 2.4675717 5 10 1
104.0785482335292 34.58296966870918 2.186547 5 10 1
104.07880413831919 34.58266581411124 2.186547 5 10 1
104.05857982477964 34.581931374749715 2.186547 5 10 1
104.05786280645287 34.58222596279356 2.186547 5 10 1
104.05104512590312 34.58282868475427 2.186547 5 10 1
104.01793132623241 34.58319318652039 0.23959856 5 10 1
104.07260204327244 34.58555225676592 2.9976442 5 10 1
104.07447897072844 34.586137298547385 2.9976442 5 10 1
104.1010144110631 34.585178994158134 2.4258506 5 10 1
104.02141307329262 34.58745871931692 2.487315 5 10 1
104.0361762384341 34.58955778883773 2.487315 5 10 1
104.0964757209103 34.59300497066627 2.4258506 5 10 1
104.09654978673554 34.594901233917284 2.4258506 5 10 1
104.12956385596043 34.59379452491648 1.7824414 5 10 1
104.06227937592048 34.596768932385906 2.9976442 5 10 1
104.0615305847402 34.595688695817216 2.9976442 5 10 1
104.20964504074341 34.479836177318425 1.2112281 5 10 1
104.22257841444957 34.48341606632434 1.2112281 5 10 1
104.19862020388959 34.48306933471304 1.0627648 5 10 1
104.1983261519405 34.48910266279422 1.0627648 5 10 1
104.19672274265554 34.49219273975587 1.0627648 5 10 1
104.22073772557937 34.49624002328144 1.2112281 5 10 1
104.21165689607326 34.50094113061218 0.82031685 5 10 1
104.2110181600362 34.500807612455105 0.82031685 5 10 1
104.19840861392294 34.5025056920061 2.151743 5 12 1
104.221005994156 34.50608353240346 0.82031685 5 10 1
104.20520349624248 34.50758960918791 2.151743 5 10 1
104.21365850761808 34.51148735247837 0.82031685 5 10 1
104.20995407593378 34.51448125295714 0.82031685 5 10 1
104.20439688046373 34.53140780267363 2.151743 5 10 1
104.19701835791456 34.53894551607406 2.151743 5 12 1
104.212229484031 34.54464311611788 1.4048518 5 10 1
104.0029066640792 34.58955655335929 2.487315 5 10 1
104.00433110723489 34.58937740304367 2.487315 5 10 1
104.0040675685267 34.589159745454594 2.487315 5 10 1
104.00582503182754 34.589404247670295 2.487315 5 10 1
104.00453402243545 34.590042581055215 2.487315 5 10 1
104.00420358839989 34.58997128177416 2.487315 5 10 1
104.00574834833184 34.591137649394526 2.487315 5 10 1
104.00584319940454 34.58909223651023 2.487315 5 10 1
104.08988023737939 34.49420994941998 1.6593099 5 12 1
104.1546209355737 34.517279656306656 2.012032 5 12 1
104.15427546770057 34.51675255769096 2.012032 5 12 1
104.15430701023159 34.51707592683332 2.012032 5 12 1
104.15557428969564 34.518361010997694 2.012032 5 12 1
104.15558970840131 34.51822225053437 2.012032 5 12 1
104.15767085276516 34.51776070156697 2.012032 5 12 1
104.15502999826414 34.516532161949705 2.012032 5 12 1
104.1544568196798 34.516134068098275 2.012032 5 12 1
104.1567806820738 34.515218319520926 2.012032 5 12 1
104.15812074189738 34.514318757947485 2.012032 5 12 1
104.14973103373356 34.51665686331283 2.012032 5 12 1
104.1220910977634 34.55022426321108 2.4675717 5 10 1
104.12217569002091 34.55018136565296 2.4675717 5 12 1
104.12322247534883 34.55006833570889 2.4675717 5 12 1
104.1237429506323 34.549926387274354 2.4675717 5 12 1
104.12363986583578 34.550252611290695 2.4675717 5 10 1
104.12377059319586 34.550167746305796 2.4675717 5 12 1
104.12396981090976 34.54976777423363 2.4675717 5 12 1
104.122313794416 34.54978342181263 2.4675717 5 12 1
104.12220226878141 34.54963272257088 2.4675717 5 12 1
104.12209854881556 34.54993966877056 2.4675717 5 12 1
104.1218548171829 34.54990210975736 2.4675717 5 12 1
104.12338301379094 34.54933734042749 2.4675717 5 12 1
104.12250350132743 34.549253967748754 2.4675717 5 12 1
104.12267541583765 34.54934297372213 2.4675717 5 12 1
104.1223837015909 34.54899424315548 2.4675717 5 12 1
104.12244559376785 34.548947287481205 2.4675717 5 12 1
104.1222517594913 34.54878395995663 2.4675717 5 12 1
104.12208126445178 34.548723944309934 2.4675717 5 12 1
104.1231971092759 34.54886138056489 2.4675717 5 12 1
104.0192559285954 34.545150221383985 0.23959856 5 12 1
104.02097445739744 34.54640182048914 0.23959856 5 12 1
104.0444051230328 34.53432130447535 0.752658 5 12 1
104.06283619268875 34.51422627717949 0.752658 5 12 1
104.06688447789044 34.51413672458241 0.752658 5 12 1
104.06271093670239 34.51598835895081 0.752658 5 12 1
104.01403480802006 34.533673533812355 1.9539238 5 12 1
104.02064628811812 34.58442674609687 2.487315 5 10 1
104.01994024851572 34.58357496970864 2.487315 5 10 1
104.01984570068402 34.5827796170491 0.23959856 5 10 1
103.99799484093859 34.47779852662817 2.0147188 3 12 0
103.99796789905598 34.480051855469746 2.0147188 3 12 0
103.99794095418167 34.48230518346023 2.0147188 3 12 0
103.99791400631536 34.48455851059958 2.0147188 3 12 0
103.9978870554567 34.486811836887725 2.0147188 3 12 0
103.99786010160538 34.48906516232471 2.0147188 3 12 0
103.9978331447611 34.491318486910444 2.0147188 3 12 0
103.9978061849235 34.49357181064495 2.0147188 3 12 0
103.99777922209229 34.49582513352816 2.0147188 3 12 0
103.99775225626709 34.49807845556007 2.0147188 3 12 0
103.99772528744765 34.500331776740644 1.2763999 6 12 0
103.9976983156336 34.502585097069876 1.2763999 6 12 0
103.99767134082461 34.504838416547706 1.2763999 6 12 0
103.99764436302038 34.507091735174136 1.2763999 6 12 0
103.99761738222058 34.50934505294911 1.2763999 6 12 0
103.9975903984249 34.511598369872615 1.2763999 6 12 0
103.99756341163297 34.51385168594461 1.2763999 6 12 0
103.9975364218445 34.5161050011651 1.2763999 6 12 0
103.99750942905916 34.51835831553403 1.2763999 6 12 0
103.99748243327663 34.52061162905138 1.2763999 6 12 0
103.99745543449659 34.522864941717124 1.2763999 6 12 0
103.99742843271869 34.52511825353125 1.2763999 6 12 0
103.99740142794263 34.5273715644937 1.2763999 6 12 0
103.99737442016809 34.529624874604465 1.2763999 6 12 0
103.99734740939472 34.531878183863526 1.2763999 6 12 0
103.99732039562221 34.534131492270824 1.2763999 6 12 0
103.99729337885022 34.53638479982637 1.2763999 6 12 0
103.99726635907847 34.53863810653011 1.2763999 6 12 0
103.99723933630658 34.540891412382024 1.2763999 6 12 0
103.99721231053425 34.54314471738209 2.0491679 6 12 0
103.99718528176116 34.54539802153027 2.0491679 6 12 0
103.99715824998695 34.547651324826546 2.0491679 6 12 0
103.99713121521137 34.549904627270905 2.0491679 6 12 0
103.99710417743401 34.552157928863295 2.0491679 6 12 0
103.99707713665461 34.5544112296037 2.0491679 6 12 0
103.99705009287281 34.55666452949207 2.0491679 6 12 0
103.99702304608829 34.55891782852841 2.0491679 6 12 0
103.99699599630073 34.561171126712686 2.0491679 6 12 0
103.9969689435098 34.56342442404485 2.0491679 6 12 0
103.99694188771517 34.56567772052491 2.0491679 6 12 0
103.99691482891652 34.5679310161528 2.0491679 6 12 0
103.99688776711353 34.57018431092852 2.0491679 6 12 0
103.99686070230587 34.572437604852034 2.0491679 6 12 0
103.99683363449321 34.57469089792331 2.0491679 6 12 0
103.99680656367522 34.576944190142335 2.0491679 6 12 0
103.9967794898516 34.57919748150907 2.0491679 6 12 0
103.996752413022 34.581450772023466 2.0491679 6 12 0
103.99672533318609 34.58370406168556 0.43371403 6 12 0
103.99669825034356 34.585957350495256 0.43371403 6 12 0
103.99667116449407 34.58821063845256 0.43371403 6 12 0
103.9966440756373 34.59046392555746 0.43371403 6 12 0
103.99661698377295 34.592717211809884 0.43371403 6 12 0
103.99658988890066 34.594970497209836 0.43371403 6 12 0
104.0007158570352 34.47782080624488 1.4298824 5 12 0
104.00068898828545 34.48007413695318 1.4298824 5 12 0
104.00066211655214 34.48232746681045 1.4298824 5 12 0
104.00063524183494 34.48458079581669 1.4298824 5 12 0
104.00060836413351 34.486834123971875 1.4298824 5 12 0
104.00058148344758 34.48908745127592 1.4298824 5 12 0
104.00055459977676 34.49134077772889 1.4298824 5 12 0
104.00052771312076 34.49359410333068 1.4298824 5 12 0
104.00050082347927 34.495847428081284 1.4298824 5 12 0
104.00047393085192 34.49810075198069 1.4298824 5 12 0
104.00044703523845 34.50035407502886 1.9539238 5 12 0
104.0004201366385 34.50260739722579 1.9539238 5 12 0
104.00039323505175 34.50486071857141 1.9539238 5 12 0
104.00036633047787 34.50711403906572 1.9539238 5 12 0
104.00033942291655 34.50936735870868 1.9539238 5 12 0
104.00031251236749 34.51162067750028 1.9539238 5 12 0
104.0002855988303 34.51387399544047 1.9539238 5 12 0
104.0002586823047 34.51612731252924 1.9539238 5 12 0
104.00023176279038 34.51838062876654 1.9539238 5 12 0
104.00020484028701 34.52063394415239 1.9539238 5 12 0
104.00017791479424 34.52288725868674 1.9539238 5 12 0
104.00015098631175 34.52514057236951 1.9539238 5 12 0
104.00012405483925 34.52739388520075 1.9539238 5 12 0
104.00009712037638 34.5296471971804 1.9539238 5 12 0
104.00007018292284 34.53190050830842 1.9539238 5 12 0
104.00004324247828 34.53415381858482 1.9539238 5 12 0
104.00001629904241 34.53640712800953 1.9539238 5 12 0
103.99998935261488 34.53866043658254 1.2763999 6 12 0
103.99996240319538 34.54091374430383 1.2763999 6 12 0
103.99993545078358 34.54316705117337 2.0491679 6 12 0
103.99990849537916 34.54542035719112 2.0491679 6 12 0
103.99988153698179 34.54767366235708 2.0491679 6 12 0
103.99985457559116 34.54992696667119 2.0491679 6 12 0
103.9998276112069 34.55218027013345 2.0491679 6 12 0
103.99980064382875 34.55443357274382 2.0491679 6 12 0
103.99977367345633 34.55668687450225 2.0491679 6 12 0
103.99974670008936 34.558940175408765 2.0491679 6 12 0
103.9997197237275 34.5611934754633 2.0491679 6 12 0
103.99969274437039 34.56344677466581 2.0491679 6 12 0
103.99966576201778 34.565700073016345 2.0491679 6 12 0
103.99963877666929 34.56795337051479 2.0491679 6 12 0
103.9996117883246 34.570206667161166 2.0491679 6 12 0
103.9995847969834 34.572459962955456 2.0491679 6 12 0
103.99955780264534 34.57471325789758 2.0491679 6 12 0
103.99953080531012 34.57696655198757 2.0491679 6 12 0
103.99950380497741 34.57921984522536 2.0491679 6 12 0
103.99947680164688 34.581473137610914 2.0491679 6 12 0
103.99944979531821 34.58372642914424 0.43371403 6 12 0
103.99942278599107 34.58597971982532 0.43371403 6 12 0
103.99939577366514 34.588233009654076 0.43371403 6 12 0
103.99936875834011 34.59048629863052 0.43371403 6 12 0
103.99934174001562 34.5927395867546 0.43371403 6 12 0
103.99931471869135 34.59499287402631 0.43371403 6 12 0
104.00343687611503 34.477843025295975 1.4298824 5 12 0
104.00341008049848 34.4800963578659 1.4298824 5 12 0
104.0033832819065 34.482349689584915 1.4298824 5 12 0
104.00335648033874 34.48460302045298 1.4298824 5 12 0
104.00332967579487 34.48685635047009 1.4298824 5 12 0
104.00330286827459 34.48910967963617 1.4298824 5 12 0
104.0032760577776 34.49136300795126 1.4298824 5 12 0
104.00324924430352 34.49361633541527 1.4298824 5 12 0
104.00322242785207 34.495869662028205 1.4298824 5 12 0
104.00319560842291 34.49812298779005 1.4298824 5 12 0
104.00316878601573 34.50037631270073 1.9539238 5 12 0
104.0031419606302 34.50262963676026 1.9539238 5 12 0
104.003115132266 34.504882959968604 1.9539238 5 12 0
104.00308830092281 34.50713628232572 1.9539238 5 12 0
104.00306146660031 34.509389603831586 1.9539238 5 12 0
104.00303462929816 34.5116429244862 1.9539238 5 12 0
104.00300778901607 34.5138962442895 1.9539238 5 12 0
104.00298094575366 34.516149563241484 1.9539238 5 12 0
104.00295409951069 34.5184028813421 1.9539238 5 12 0
104.00292725028676 34.52065619859134 1.9539238 5 12 0
104.0029003980816 34.52290951498918 1.9539238 5 12 0
104.00287354289485 34.525162830535585 1.9539238 5 12 0
104.00284668472622 34.52741614523051 1.9539238 5 12 0
104.00281982357535 34.52966945907396 1.9539238 5 12 0
104.00279295944196 34.53192277206588 1.9539238 5 12 0
104.0027660923257 34.534176084206266 1.9539238 5 12 0
104.00273922222625 34.53642939549508 1.9539238 5 12 0
104.0027123491433 34.538682705932274 1.9539238 5 12 0
104.00268547307651 34.54093601551786 1.9539238 5 12 0
104.00265859402553 34.543189324251784 0.23959856 5 12 0
104.00263171199012 34.54544263213403 0.23959856 5 12 0
104.00260482696987 34.54769593916456 0.23959856 5 12 0
104.00257793896452 34.54994924534337 0.23959856 5 12 0
104.00255104797371 34.552202550670415 0.23959856 5 10 0
104.00252415399713 34.55445585514566 0.23959856 5 10 0
104.00249725703443 34.556709158769095 0.23959856 5 10 0
104.00247035708534 34.558962461540695 0.23959856 5 10 0
104.00244345414949 34.5612157634604 0.23959856 5 10 0
104.00241654822656 34.56346906452821 0.23959856 5 10 0
104.00238963931626 34.56572236474409 0.23959856 5 10 0
104.00236272741823 34.567975664108026 0.23959856 5 10 0
104.00233581253217 34.57022896261998 0.23959856 5 10 0
104.00230889465774 34.57248226027994 0.23959856 5 10 0
104.00228197379462 34.574735557087834 0.23959856 5 10 0
104.0022550499425 34.576988853043694 0.23959856 5 10 0
104.00222812310103 34.57924214814745 0.23959856 5 10 0
104.00220119326993 34.581495442399095 0.23959856 5 10 0
104.00217426044881 34.58374873579859 2.487315 5 10 0
104.00214732463739 34.586002028345916 2.487315 5 10 0
104.00212038583534 34.58825532004104 2.487315 5 10 0
104.00209344404234 34.59050861088396 2.487315 5 10 0
104.00206649925806 34.5927619008746 2.487315 5 10 0
104.00203955148217 34.59501519001297 2.487315 5 10 0
104.00615789817 34.47786518378123 1.4298824 5 12 0
104.00613117568699 34.48011851820773 1.4298824 5 12 0
104.00610445023663 34.482371851783384 1.4298824 5 12 0
104.00607772181861 34.484625184508225 1.4298824 5 12 0
104.00605099043266 34.48687851638218 1.4298824 5 12 0
104.00602425607838 34.489131847405226 1.4298824 5 12 0
104.00599751875548 34.49138517757735 1.4298824 5 12 0
104.00597077846366 34.493638506898506 1.4298824 5 12 0
104.00594403520257 34.4958918353687 1.4298824 5 12 0
104.00591728897193 34.498145162987875 1.4298824 5 12 0
104.00589053977136 34.500398489756 1.9539238 5 12 0
104.00586378760059 34.502651815673076 1.9539238 5 12 0
104.00583703245925 34.504905140739055 1.9539238 5 12 0
104.00581027434707 34.5071584649539 1.9539238 5 12 0
104.0057835132637 34.509411788317614 1.9539238 5 12 0
104.00575674920881 34.51166511083017 1.9539238 5 12 0
104.00572998218209 34.513918432491494 1.9539238 5 12 0
104.00570321218322 34.516171753301606 1.9539238 5 12 0
104.0056764392119 34.51842507326046 1.9539238 5 12 0
104.00564966326777 34.52067839236802 1.9539238 5 12 0
104.00562288435053 34.52293171062429 1.9539238 5 12 0
104.00559610245985 34.52518502802921 1.9539238 5 12 0
104.0055693175954 34.52743834458277 1.9539238 5 12 0
104.0055425297569 34.52969166028492 1.9539238 5 12 0
104.00551573894396 34.53194497513568 1.9539238 5 12 0
104.0054889451563 34.53419828913497 1.9539238 5 12 0
104.00546214839362 34.53645160228279 1.9539238 5 12 0
104.00543534865552 34.53870491457911 1.9539238 5 12 0
104.00540854594178 34.5409582260239 1.9539238 5 12 0
104.005381740252 34.54321153661714 0.23959856 5 12 0
104.00535493158587 34.545464846358804 0.23959856 5 12 0
104.0053281199431 34.547718155248845 0.23959856 5 12 0
104.00530130532336 34.54997146328724 0.23959856 5 12 0
104.00527448772628 34.552224770473984 0.23959856 5 10 0
104.00524766715161 34.55447807680904 0.23959856 5 10 0
104.00522084359896 34.55673138229237 0.23959856 5 10 0
104.00519401706805 34.558984686923935 0.23959856 5 10 1
104.00516718755854 34.56123799070376 0.23959856 5 10 0
104.00514035507013 34.56349129363177 0.23959856 5 10 0
104.00511351960247 34.56574459570796 0.23959856 5 10 0
104.00508668115523 34.56799789693228 0.23959856 5 10 0
104.00505983972812 34.57025119730472 0.23959856 5 10 0
104.00503299532079 34.57250449682527 0.23959856 5 10 0
104.00500614793293 34.574757795493845 0.23959856 5 10 0
104.00497929756423 34.5770110933105 0.23959856 5 10 0
104.00495244421433 34.57926439027514 0.23959856 5 10 0
104.00492558788292 34.58151768638776 0.23959856 5 10 0
104.00489872856971 34.58377098164834 2.487315 5 10 0
104.00487186627434 34.58602427605684 2.487315 5 10 0
104.0048450009965 34.58827756961327 2.487315 5 10 0
104.00481813273586 34.59053086231756 2.487315 5 10 0
104.0047912614921 34.592784154169685 2.487315 5 10 0
104.0047643872649 34.59503744516964 2.487315 5 10 0
104.00887892319199 34.47788728170046 1.4298824 5 12 0
104.0088522738428 34.480140617978435 1.4298824 5 12 0
104.00882562153441 34.482393953405676 1.4298824 5 12 0
104.0087989662665 34.4846472879822 1.4298824 5 12 0
104.00877230803871 34.48690062170793 1.4298824 5 12 0
104.00874564685076 34.48915395458284 1.4298824 5 12 0
104.00871898270233 34.49140728660696 1.4298824 5 12 0
104.00869231559307 34.493660617780186 1.4298824 5 12 0
104.00866564552268 34.49591394810254 1.4298824 5 12 0
104.00863897249083 34.498167277573984 1.4298824 5 12 0
104.0086122964972 34.500420606194474 1.9539238 5 12 0
104.0085856175415 34.502673933964026 1.9539238 5 12 0
104.00855893562338 34.50492726088257 1.9539238 5 12 0
104.0085322507425 34.50718058695007 1.9539238 5 12 0
104.00850556289859 34.50943391216655 1.9539238 5 12 0
104.00847887209127 34.511687236531955 1.9539238 5 12 0
104.00845217832028 34.513940560046244 1.9539238 5 12 0
104.00842548158528 34.51619388270941 1.9539238 5 12 0
104.00839878188592 34.5184472045214 1.9539238 5 12 0
104.0083720792219 34.52070052548221 1.9539238 5 12 0
104.0083453735929 34.522953845591815 1.9539238 5 12 0
104.0083186649986 34.52520716485018 1.9539238 5 12 0
104.00829195343867 34.52746048325728 1.9539238 5 12 0
104.00826523891281 34.529713800813084 1.9539238 5 12 0
104.00823852142068 34.53196711751756 1.9539238 5 12 0
104.00821180096196 34.5342204333707 1.9539238 5 12 0
104.00818507753633 34.536473748372444 1.9539238 5 12 0
104.00815835114348 34.5387270625228 1.9539238 5 12 0
104.00813162178306 34.540980375821725 1.9539238 5 12 0
104.00810488945478 34.5432336882692 0.23959856 5 12 0
104.00807815415831 34.54548699986518 0.23959856 5 12 0
104.00805141589332 34.54774031060965 0.23959856 5 12 0
