140.84155994621344 38.88333898258783 2.6925886 1 5 1
140.78165046208463 38.837248441866 1.2620261 1 5 1
140.7811993599043 38.814714214225184 1.5387895 1 5 1
140.80125644236423 38.81965166541934 1.4984996 1 5 1
140.79320498948067 38.83267189643859 1.4984996 1 5 1
140.79392906737144 38.832131410668026 1.4984996 1 5 1
140.89928832012728 38.915933110373736 1.8909118 1 4 1
140.89890619050718 38.91331834010433 1.8909118 1 4 1
140.899030932522 38.91368554787708 1.8909118 1 4 1
140.91712415544234 38.90912481738985 1.2449901 1 5 1
140.91546744289417 38.909751774060815 1.8909118 1 5 1
140.91418356036633 38.91100265894428 1.8909118 1 5 1
140.9144723752709 38.910823480086606 1.8909118 1 5 1
140.9086614511702 38.90816308628003 1.8909118 1 5 1
140.90645438990055 38.91152009113217 1.8909118 1 5 1
140.90860827354055 38.91035349414326 1.8909118 1 5 1
140.90863922124933 38.91207621101005 1.8909118 1 5 1
140.9098939424569 38.91224085584003 1.8909118 1 5 1
140.9092110796384 38.91284026519202 1.8909118 1 5 1
140.9097720570375 38.91321611174147 1.8909118 1 5 1
140.90909078509384 38.91396528625539 1.8909118 1 5 1
140.90897736848723 38.91424853365592 1.8909118 1 5 1
140.90753115701241 38.91609450837816 1.8909118 1 5 1
140.90760231116892 38.91450282966574 1.8909118 1 5 1
140.8736716072838 38.879136909824076 2.6925886 1 5 1
140.87238330788756 38.88044166039078 2.6925886 1 5 1
140.8774500895105 38.882885788692974 1.8909118 1 5 1
140.8754100731648 38.89960717267061 1.8909118 1 5 1
140.89030063820073 38.90663303304097 1.8909118 1 4 1
140.87956671108304 38.901854163981845 1.8909118 1 4 1
140.88062215373375 38.90306235475908 1.8909118 1 4 0
140.90267816090252 38.919753104563675 1.8882116 1 5 1
140.90240646387937 38.91980029231505 1.8882116 1 5 1
140.90320300254103 38.91966800557472 1.8882116 1 5 1
140.9029820124449 38.92016357182321 1.8882116 1 5 1
140.9031740842564 38.92037232412121 1.8882116 1 5 1
140.90337611582612 38.920785019867594 1.8882116 1 5 1
140.91303669844228 38.92143446852207 1.8882116 1 5 1
140.9131666566256 38.92168085407773 1.8882116 1 5 1
140.91324430728682 38.9218072631225 1.8882116 1 5 1
140.92077509167197 38.94084527235244 0.93395 1 5 1
140.8997459465195 38.97325677518361 1.7684468 1 4 1
140.90599000587528 38.96502920216998 1.7684468 1 5 1
140.91602272555937 38.96811123739969 1.7684468 1 5 1
140.91052526318532 38.98819388539008 1.7684468 1 5 1
140.90930356902768 38.99432443632324 1.7684468 1 5 0
140.91012065602717 38.99522383873845 1.7684468 1 5 1
140.7395853331316 38.85387109444918 1.0682622 1 4 1
140.724893536104 38.854359800361635 1.0682622 1 4 1
140.72505942243612 38.85442267666789 1.0682622 1 4 1
140.7274119780071 38.87926952418848 1.949633 1 4 1
140.73582023914116 38.90718662763264 1.949633 1 4 1
140.7371476665368 38.9099480462934 1.949633 1 4 1
140.73737571566005 38.910149229263354 1.949633 1 4 1
140.73760468910478 38.910198922939706 1.949633 1 4 1
140.73819691166608 38.91012909792379 1.949633 1 4 1
140.73859574538977 38.91000098899233 1.949633 1 4 1
140.74646227249056 38.901735834722714 1.949633 1 4 1
140.74706328216047 38.89816185703638 1.949633 1 4 1
140.81123546727122 38.941423202232315 3.5914774 1 4 1
140.81219140701262 38.94168222038856 3.5914774 1 4 1
140.8283046120053 38.94635452522308 3.5914774 1 4 1
140.85321640730024 38.930110290063 3.3663173 1 4 1
140.8699077788571 38.9232955610236 3.3663173 1 4 1
140.8683067145504 38.91985959571967 3.3663173 1 4 1
140.86306686644932 38.95395011345316 3.3663173 1 4 1
140.86574332015212 38.95257708992316 3.3663173 1 4 1
140.7835371979701 38.9967579948039 1.2380941 1 4 1
140.7882334875344 38.99586515562671 1.2380941 1 4 1
140.78792609489722 38.99488034994677 1.2380941 1 4 1
140.7886094702311 38.99642724641201 1.2380941 1 4 1
140.79039702289182 39.000305956500625 1.7267323 1 4 1
140.78882412759424 38.998023654475126 1.2380941 1 4 1
140.7905494570939 38.99817055742858 1.2380941 1 4 1
140.79140769528726 38.9966151047149 1.2380941 1 4 1
140.7890793726887 38.99882899001698 1.2380941 1 4 1
140.79038236519602 39.000606648759394 1.7267323 1 4 1
140.78940528313274 38.997838882204 1.2380941 1 4 1
140.85010269537932 38.99581164506541 2.9800887 1 4 1
140.84972305104094 38.9956337174719 2.9800887 1 4 1
140.84944364784977 38.995736611295975 2.9800887 1 4 1
140.84959731066095 38.99613297256055 2.9800887 1 4 1
140.8425723082529 38.995409021807 2.9800887 1 4 1
140.8419469013689 38.997189390468876 2.9800887 1 4 1
140.84533019329277 38.98165167478566 2.9800887 1 4 1
140.84327203897521 38.98088226967372 2.9800887 1 4 1
140.83403400253724 38.97175890411103 2.9800887 1 4 1
140.83374823577202 38.97302060818663 2.9800887 1 4 1
140.8503037315945 38.993317062893475 2.9800887 1 4 1
140.8485769406586 38.9945609290805 2.9800887 1 4 0
140.8495271643177 38.99396661068576 2.9800887 1 4 1
140.84856695993335 38.98985822547208 2.9800887 1 4 1
140.85029686901197 38.99098665756646 2.9800887 1 4 1
140.84910677429485 38.99084399351631 2.9800887 1 4 1
140.77468777370947 38.96676018887031 1.2380941 1 4 1
140.77621797387414 38.96622126688797 1.2380941 1 4 1
140.74688962995995 38.90007277742645 1.949633 1 4 0
140.88928599118142 38.90420326710933 1.8909118 1 4 1
140.8896399120319 38.90441792258231 1.8909118 1 4 1
140.77809755472254 38.885990175587004 2.9533756 1 4 1
140.77626864410706 38.905928955802096 2.9533756 1 4 1
140.83415354972786 38.90995329859409 2.6925886 1 4 1
140.8350580901445 38.9089832003553 2.6925886 1 4 1
140.82687789849695 38.90670255446217 2.8356624 1 4 1
140.82806881274865 38.90663665266923 2.8356624 1 4 1
140.82960778515093 38.9062171029281 2.8356624 1 4 1
140.83931572754884 38.96601108091857 2.9800887 1 4 1
140.83069721207497 38.94854254911871 3.5914774 1 4 0
140.85117634288991 38.92085476787004 3.3663173 1 4 1
140.85027332503944 38.92146580969775 3.3663173 1 4 1
140.8069248054087 38.958929143705085 2.9279935 1 4 1
140.87179689787624 39.03773686133223 1.8401043 1 4 1
140.87218677519868 39.03708344977774 1.8401043 1 4 1
140.89482076117372 39.00721781972036 1.1759297 1 4 1
140.89833513758916 39.00389578842604 1.1759297 1 4 1
140.8989689053662 39.00421780750227 1.1759297 1 4 1
140.8995759937539 39.00382843180642 1.1759297 1 4 1
140.8996851803497 39.00398814433715 1.1759297 1 4 1
140.90198156787255 39.00619316824988 1.1759297 1 4 1
140.90633778652676 39.006444325516235 1.1759297 1 4 1
140.92044169336756 39.01499724847267 1.974088 1 4 1
140.95071345357542 39.012249364456835 1.974088 1 5 1
140.97364553747283 39.00937722615378 1.8000382 1 5 1
140.91056313776738 39.0162277723084 1.1759297 1 4 1
140.90641322413313 39.01619080642653 1.1759297 1 4 1
140.90641873476912 39.016621053785144 1.1759297 1 4 1
140.90604309652434 39.01870043309999 1.1759297 1 4 1
140.88668414335842 39.01861146985119 1.1759297 1 4 1
140.88543905025017 39.01882708849432 1.1759297 1 4 1
140.8855934900585 39.019037111172565 1.1759297 1 4 1
140.88306035224713 39.01929106621935 1.1759297 1 4 1
140.88354092327066 39.01965131483384 1.1759297 1 4 1
140.88011547265774 39.021064927713965 1.1759297 1 4 1
140.8806313925161 39.021926955496625 1.1759297 1 4 1
140.88811496844593 39.02706850981481 1.1759297 1 4 1
140.88436521100152 39.02470084671888 1.1759297 1 4 1
140.8849830887087 39.02498124825566 1.1759297 1 4 1
140.88389504544753 39.02865865417765 1.1759297 1 4 1
140.88335698685017 39.02900401389213 1.1759297 1 4 1
140.8834734092457 39.02956526829538 1.1759297 1 4 1
140.88373911865523 39.029850806298946 1.1759297 1 4 1
140.91286454836194 39.03633660486014 1.1759297 1 4 1
140.9159729843041 39.03912432754712 1.1759297 1 4 1
140.91556845214325 39.03889904974943 1.1759297 1 4 1
140.92083930619845 39.036034102318396 1.974088 1 4 1
140.921218800147 39.03517493164186 1.974088 1 4 1
140.93487540267452 39.02376001126335 1.974088 1 4 1
140.93564908926908 39.02393878975241 1.974088 1 4 1
140.94104561887016 39.03008006606542 1.974088 1 4 1
140.9422629833062 39.03035630571153 1.974088 1 4 1
140.9405244605951 39.03226085003534 1.974088 1 4 1
140.94426277394587 39.028260130129794 1.974088 1 4 1
140.9449486792838 39.02790620761673 1.974088 1 4 1
140.9452442643617 39.02766748046935 1.974088 1 4 1
140.94547534699626 39.02773933586311 1.974088 1 4 1
140.9463299199925 39.02773895073307 1.974088 1 4 1
140.94577666340595 39.02825352884871 1.974088 1 4 1
140.94622961853017 39.02850456194748 1.974088 1 4 1
140.95515219076492 39.0293793852487 1.974088 1 5 1
140.94330169997417 39.03345580370601 1.974088 1 4 1
140.94286702987532 39.0338362624216 1.974088 1 4 1
140.9408353914437 39.03565544903426 1.974088 1 4 1
140.9451154140397 39.03655430188527 1.974088 1 4 1
140.94555606762887 39.03774833840987 1.974088 1 4 1
140.94510624112274 39.04661530830673 1.5634795 1 4 1
140.91589049201775 39.05369547969327 0.6782976 1 5 1
140.91757807311473 39.05215597197453 1.5634795 1 5 1
140.91998997496603 39.05315575026799 1.5634795 1 5 1
140.9205848004418 39.05432241021844 1.5634795 1 5 1
140.92128332156068 39.05366158385959 1.5634795 1 5 1
140.9292713284266 39.05121343274689 1.5634795 1 5 1
140.92508821428854 39.053341053028504 1.5634795 1 5 1
140.92465712831068 39.05415997846558 1.5634795 1 5 1
140.9250691197986 39.05502173223201 1.5634795 1 5 1
140.92353394252035 39.055498989540105 1.5634795 1 5 1
140.92403761239197 39.05572599851462 1.5634795 1 5 1
140.92613189858758 39.056284923545775 1.5634795 1 5 1
140.9189384707225 39.057483711741554 1.5634795 1 5 1
140.92895726737072 39.05572498396136 1.5634795 1 5 1
140.92850349682683 39.056099075140466 1.5634795 1 5 1
140.92916722668514 39.056357673395546 1.5634795 1 5 1
140.9333148606001 39.05212672740922 1.5634795 1 5 1
140.9441466804839 39.0525521334092 1.5634795 1 5 1
140.94508401919848 39.05528881714098 1.5634795 1 5 1
140.94617292541685 39.05480105757818 1.5634795 1 5 1
140.94859889296592 39.054775209173485 1.5634795 1 5 1
140.95306422555416 39.054429803013775 1.5634795 1 5 1
140.95094631815905 39.056836960145645 1.5634795 1 5 1
140.95027953951583 39.05816154653494 1.5634795 1 5 1
140.95031334415776 39.059562342803275 1.5634795 1 5 1
140.94776889507253 39.05932177549967 1.5634795 1 5 1
140.94562794045913 39.058757825025985 1.5634795 1 5 1
140.94599592796524 39.05896048858095 1.5634795 1 5 1
140.94426334749625 39.05784832155437 1.5634795 1 5 1
140.94407078323937 39.05818824361638 1.5634795 1 5 1
140.9421539881407 39.05524683633119 1.5634795 1 5 1
140.94191668553458 39.05547709017334 1.5634795 1 5 1
140.94107661214886 39.056488775150555 1.5634795 1 5 1
140.94195034074994 39.05622774496746 1.5634795 1 5 1
140.94290404846683 39.05638890087174 1.5634795 1 5 1
140.93983991835057 39.057014761706476 1.5634795 1 5 1
140.93921038250218 39.05816205211291 1.5634795 1 5 1
140.93713066919872 39.05676872761303 1.5634795 1 5 1
140.937684175881 39.05686389476558 1.5634795 1 5 1
140.93681996653274 39.05567879212579 1.5634795 1 5 1
140.93526286465885 39.05614466547552 1.5634795 1 5 1
140.93434362155787 39.056881941873314 1.5634795 1 5 1
140.9340642450147 39.05763398185809 1.5634795 1 5 1
140.9338698932424 39.0579548438657 1.5634795 1 5 1
140.93266862806172 39.056412621755314 1.5634795 1 5 1
140.93295072294896 39.0564802933047 1.5634795 1 5 1
140.9315582677066 39.0569717252306 1.5634795 1 5 1
140.93251869928343 39.05725112415923 1.5634795 1 5 1
140.932527886825 39.05809913850911 1.5634795 1 5 1
140.93060151554758 39.057458382015184 1.5634795 1 5 1
140.92963396422417 39.058480624600385 1.5634795 1 5 1
140.93042331304608 39.05894527446722 1.5634795 1 5 1
140.93116755674367 39.05924809318676 1.5634795 1 5 1
140.93180184590852 39.06068122100249 1.5634795 1 5 1
140.93249669554132 39.06114950727393 1.5634795 1 5 1
140.93253856524834 39.06130150929897 1.5634795 1 5 1
140.9343696542004 39.062959431178534 1.5634795 1 5 1
140.9322522719497 39.06397104292914 1.5634795 1 5 1
140.9316724835716 39.06383226344791 1.5634795 1 5 1
140.94548590904648 39.05979175636359 1.5634795 1 5 1
140.94631601583222 39.06040324706192 1.5634795 1 5 1
140.94517646785397 39.06119173102609 1.5634795 1 5 1
140.9451537580544 39.06154353508038 1.5634795 1 5 1
140.947812924246 39.06164429323065 1.5634795 1 5 1
140.94366675890737 39.061046208712526 1.5634795 1 5 1
140.94351605968535 39.06134104774708 1.5634795 1 5 1
140.94388486626997 39.06275421792385 1.5634795 1 5 1
140.94133876108612 39.06368779306987 1.5634795 1 5 1
140.94081372077204 39.064017475746994 1.5634795 1 5 1
140.94163381410547 39.067075653340765 1.5634795 1 5 1
140.9386693941856 39.06456395127162 1.5634795 1 5 1
140.93883303301442 39.06478362775544 1.5634795 1 5 1
140.9424270112604 39.0766659300615 1.5634795 1 5 1
140.9404877641654 39.07424825274573 1.5634795 1 5 1
140.93877633458183 39.07434436811389 1.5634795 1 5 1
140.93889953492888 39.074437023447544 1.5634795 1 5 1
140.9335242974626 39.06946153993267 1.5634795 1 5 1
140.93240526486798 39.07009594747493 1.5634795 1 5 1
140.93063361061255 39.07177519957486 1.5634795 1 5 1
140.92203022184052 39.07159542328323 1.5634795 1 5 1
140.91784474955077 39.07065352921935 1.5634795 1 5 1
140.93000154948137 39.07515026758176 1.5634795 1 5 1
140.9286951376789 39.07714291641365 1.5634795 1 5 1
140.92989058849048 39.07754493129673 1.5634795 1 5 1
140.93008781695474 39.077891164164946 1.5634795 1 5 1
140.93071595993646 39.08226708554154 1.5634795 1 5 1
140.92873103602315 39.082442453223415 1.5634795 1 5 1
140.92902765950896 39.08237232604516 1.5634795 1 5 1
140.92484231658412 39.08173820891612 1.5634795 1 5 1
140.9234771506257 39.083589916178944 1.531908 1 5 1
140.92569298687843 39.0837479438093 1.531908 1 5 1
140.9216905269979 39.085756660163945 1.531908 1 5 1
140.91781353882482 39.08517460142561 1.531908 1 5 1
140.91425316169043 39.085899415051244 1.829121 1 5 1
140.91351093870784 39.08444655980461 1.829121 1 5 1
140.9114927419847 39.085367392593575 1.829121 1 5 1
140.91176842365604 39.08525831438059 1.829121 1 5 1
140.91145467182227 39.08493643786587 1.829121 1 5 1
140.9060810474191 39.08436408270795 1.829121 1 5 1
140.90684510926113 39.08437491774192 1.829121 1 5 1
140.90669892706816 39.081596306953195 0.6782976 1 5 1
140.90671987031644 39.081787851498255 0.6782976 1 5 1
140.91439020412477 39.08109989524361 0.6782976 1 5 1
140.91441228098765 39.07534800019738 0.6782976 1 5 1
140.91431050357644 39.07652494623297 0.6782976 1 5 1
140.91084016003668 39.07607223712876 0.6782976 1 5 1
140.91065513708432 39.0770684942319 0.6782976 1 5 1
140.90739119547905 39.07686836752082 0.6782976 1 5 1
140.9007751683411 39.082263103866886 0.6782976 1 5 1
140.90109521897028 39.08023873237231 0.6782976 1 5 1
140.89986327900266 39.078487519673025 0.6782976 1 4 1
140.8982136716312 39.079026814746086 0.6782976 1 4 1
140.89862600111275 39.07917148823248 0.6782976 1 4 1
140.89901028476186 39.07937666815199 0.6782976 1 4 1
140.90511006272496 39.079290461722074 0.6782976 1 5 1
140.90519677003124 39.07910121922379 0.6782976 1 5 1
140.90549521996937 39.07853829794692 0.6782976 1 5 1
140.90072631224623 39.07722145110003 0.6782976 1 5 1
140.90081459668662 39.07667953878554 0.6782976 1 5 1
140.90189125143715 39.077707946245994 0.6782976 1 5 1
140.9018467327944 39.07792301922672 0.6782976 1 5 1
140.87896325334415 39.07577506877607 0.6782976 1 4 1
140.87991344113357 39.07113147890528 0.6782976 1 4 1
140.88039804874754 39.07156484231105 0.6782976 1 4 1
140.88064676320354 39.072237969776644 0.6782976 1 4 1
140.87168625629155 39.04659853193753 1.4832358 1 4 1
140.87433777585537 39.04630420129129 1.4832358 1 4 1
140.87481180472574 39.04641003097652 1.4832358 1 4 1
140.8765286592751 39.04649143280365 0.6782976 1 4 1
140.87510527450095 39.04716552985688 0.6782976 1 4 1
140.8753561779342 39.047183537410305 0.6782976 1 4 1
140.87555964069506 39.04735787439692 0.6782976 1 4 1
140.87875388010843 39.04732296381807 0.6782976 1 4 1
140.87876768295985 39.04769670747346 0.6782976 1 4 1
140.87877553583237 39.04796265260984 0.6782976 1 4 1
140.8788919627875 39.04824865213476 0.6782976 1 4 1
140.87189152849405 39.04828381398444 1.4832358 1 4 1
140.87189050042258 39.048821459859745 1.4832358 1 4 1
140.87208428845213 39.04919910708277 1.4832358 1 4 1
140.8719941750621 39.0503790016779 1.4832358 1 4 1
140.87244120995769 39.051072688820504 1.4832358 1 4 1
140.87555878835366 39.04880295414926 0.6782976 1 4 1
140.87978214247758 39.050941149808004 0.6782976 1 4 1
140.88013863891678 39.05178572182786 0.6782976 1 4 1
140.88375188235145 39.05270846369382 0.6782976 1 4 1
140.88058530608438 39.05304061059622 0.6782976 1 4 1
140.87944144801966 39.05358631950981 0.6782976 1 4 1
140.8770670838174 39.05252042713025 0.6782976 1 4 1
140.8774346517711 39.0526189440757 0.6782976 1 4 1
140.87576556137753 39.05230470255455 0.6782976 1 4 1
140.87297745151108 39.05265817749386 1.4832358 1 4 1
140.87419089716332 39.05252989971712 1.4832358 1 4 1
140.87443348534364 39.05440525250453 1.4832358 1 4 1
140.8747888232286 39.05439900432557 1.4832358 1 4 1
140.8755951148563 39.054205168601 0.6782976 1 4 1
140.8752180908752 39.05893575814361 0.6782976 1 4 1
140.87605536111485 39.059482208738125 0.6782976 1 4 1
140.87534857824184 39.06042125756456 0.6782976 1 4 1
140.87489487153033 39.06134255639981 1.4832358 1 4 1
140.87450195174284 39.06224469603084 1.4832358 1 4 1
140.8743228000531 39.06246239762376 1.4832358 1 4 1
140.8748316381575 39.0626898211102 1.4832358 1 4 1
140.87745465650855 39.06173487526206 0.6782976 1 4 1
140.87865728249938 39.0618089921576 0.6782976 1 4 1
140.87893329112353 39.06056063022984 0.6782976 1 4 1
140.88182700078022 39.062434812555395 0.6782976 1 4 1
140.88131208143275 39.06327694241668 0.6782976 1 4 1
140.8817827128052 39.06319274347423 0.6782976 1 4 1
140.8822500540969 39.06481254558447 0.6782976 1 4 1
140.88413794912165 39.06331905138288 0.6782976 1 4 1
140.89903436650502 39.05978481666882 0.6782976 1 4 1
140.89701664021607 39.05968535208666 0.6782976 1 4 1
140.8977903465888 39.06015583641499 0.6782976 1 4 1
140.89797333757403 39.06016981939217 0.6782976 1 4 1
140.88928786534467 39.06138780524103 0.6782976 1 4 1
140.89095686719781 39.06127035888319 0.6782976 1 4 1
140.89117809628593 39.061318203384985 0.6782976 1 4 1
140.89153114287052 39.06187334380179 0.6782976 1 4 1
140.8930917465987 39.06162714511537 0.6782976 1 4 1
140.90602412088606 39.06097479199038 0.6782976 1 5 1
140.90864404794536 39.059764299323746 0.6782976 1 5 1
140.90938721887522 39.05932125565074 0.6782976 1 5 1
140.91135199945532 39.06205336550274 0.6782976 1 5 1
140.9138866769941 39.06149325605603 0.6782976 1 5 1
140.91485053570483 39.05988092941116 0.6782976 1 5 1
140.91503530469757 39.060217227384996 0.6782976 1 5 1
140.9153275411447 39.0603777524516 0.6782976 1 5 1
140.919253936008 39.06080063500842 1.5634795 1 5 1
140.92328548600995 39.05906241605235 1.5634795 1 5 1
140.92360274543842 39.05929250572128 1.5634795 1 5 1
140.93006340106731 39.06024341936676 1.5634795 1 5 1
140.92870859276604 39.05956061263208 1.5634795 1 5 1
140.9282395516218 39.059855244420895 1.5634795 1 5 1
140.9279590395025 39.06026395109568 1.5634795 1 5 1
140.9276177220827 39.05991903695085 1.5634795 1 5 1
140.92679416264053 39.05975357502382 1.5634795 1 5 1
140.92591861126263 39.06034406446466 1.5634795 1 5 1
140.92622228822128 39.060128210345944 1.5634795 1 5 1
140.9256523224212 39.05985742201798 1.5634795 1 5 1
140.9261559258187 39.06094921442642 1.5634795 1 5 1
140.92503459530616 39.060373965135554 1.5634795 1 5 1
140.92519513319854 39.061064828949604 1.5634795 1 5 1
140.92449764239765 39.06081579700178 1.5634795 1 5 1
140.92474688473973 39.06116163495463 1.5634795 1 5 1
140.9239663490971 39.060957773594154 1.5634795 1 5 1
140.9242746107468 39.061284609949894 1.5634795 1 5 1
140.92382075843562 39.061436743707475 1.5634795 1 5 1
140.9227722018967 39.06099843697329 1.5634795 1 5 1
140.92196569998578 39.06135471485398 1.5634795 1 5 1
140.9216899646626 39.06402805204418 1.5634795 1 5 1
140.92070499831758 39.06373849542642 1.5634795 1 5 1
140.92007155574012 39.0634582857582 1.5634795 1 5 1
140.91934920804573 39.0629962369405 1.5634795 1 5 1
140.91979291110093 39.06169545316099 1.5634795 1 5 1
140.9205062733695 39.06181180747132 1.5634795 1 5 1
140.91958385098454 39.062151507790865 1.5634795 1 5 1
140.9187660193988 39.06269771352264 1.5634795 1 5 1
140.9211759396135 39.062057444766076 1.5634795 1 5 1
140.9198425150456 39.0624926695569 1.5634795 1 5 1
140.9145947085055 39.06837891050297 0.6782976 1 5 1
140.9132820628677 39.0678291532296 0.6782976 1 5 1
140.9129261974731 39.06894414120343 0.6782976 1 5 1
140.91516949686672 39.06764211219124 0.6782976 1 5 1
140.91495502995951 39.0671589402223 0.6782976 1 5 1
140.91584919341867 39.066974085125345 0.6782976 1 5 1
140.91593024207202 39.06742999798328 0.6782976 1 5 1
140.91628733703487 39.066706021280304 0.6782976 1 5 1
140.91963528136563 39.067257263174646 1.5634795 1 5 1
140.91892544485896 39.06708276050122 1.5634795 1 5 1
140.91839590997563 39.06801760561224 1.5634795 1 5 1
140.91804228560076 39.068034929520394 1.5634795 1 5 1
140.93297028863083 39.086284939222445 1.531908 1 5 1
140.9066407285122 39.0864862912717 1.829121 1 5 1
140.90461405346446 39.08771985339381 1.829121 1 5 1
140.88653619050038 39.08888878696935 1.829121 1 4 1
140.88678189608683 39.089518216861556 1.829121 1 4 1
140.88781302737678 39.09000524004968 1.829121 1 4 1
140.88870044336898 39.09259394710753 1.829121 1 4 1
140.8884602593236 39.093447754973894 1.829121 1 4 1
140.88377413759682 39.10388956344296 1.829121 1 4 1
140.88395120591855 39.10393574595323 1.829121 1 4 1
140.88431193224238 39.103405483560906 1.829121 1 4 1
140.88854686544045 39.10392935781875 1.829121 1 4 1
140.88871953093113 39.10548847519228 1.829121 1 4 1
140.88839030944834 39.105866248278495 1.829121 1 4 1
140.88901970731598 39.10649737576193 1.829121 1 4 1
140.88807237873453 39.10648873776335 1.829121 1 4 1
140.88826885719922 39.107097353818105 1.829121 1 4 1
140.88838918012718 39.107349676118965 1.829121 1 4 1
140.89007679444785 39.1081930653561 1.829121 1 4 1
140.8920958007697 39.109538395117795 1.829121 1 4 1
140.90447105421717 39.11171136497603 1.829121 1 4 1
140.90048694008001 39.10981878300286 1.829121 1 4 1
140.90076528582028 39.11907639352938 1.829121 1 4 1
140.90836673466674 39.12210995125359 1.829121 1 4 1
140.90797478683257 39.12361822716774 1.829121 1 4 1
140.90738107754132 39.124485750785276 1.829121 1 4 1
140.90493094178586 39.11370644962265 1.829121 1 4 1
140.90534811192921 39.113942742501926 1.829121 1 4 1
140.90580413346706 39.11417365143298 1.829121 1 4 1
140.90615979020856 39.11456127320844 1.829121 1 4 1
140.90733044418408 39.114573480223754 1.829121 1 4 1
140.90756227306605 39.1145300705106 1.829121 1 4 1
140.9096209676262 39.1160738091658 1.829121 1 4 1
140.9112031197182 39.11377851254654 1.829121 1 4 1
140.9122628607889 39.1144074896495 1.829121 1 4 1
140.91357023840376 39.11350271765913 1.829121 1 4 1
140.9144456998833 39.11274694206724 1.829121 1 4 1
140.91520502082912 39.11260954417675 1.829121 1 4 1
140.91537029313997 39.11272884672305 1.829121 1 4 1
140.91560919774176 39.11282899782303 1.829121 1 4 1
140.9164231611157 39.11246809408174 1.829121 1 4 1
140.9161861617117 39.11256634769949 1.829121 1 4 1
140.9139838344525 39.114007109271306 1.829121 1 4 1
140.91459057568792 39.11372787934448 1.829121 1 4 1
140.91500145993504 39.11355025956883 1.829121 1 4 1
140.91467377850373 39.114124042435044 1.829121 1 4 1
140.91351206456255 39.11470982555575 1.829121 1 4 1
140.91352622148156 39.11510521585904 1.829121 1 4 1
140.91495948226705 39.11473082511811 1.829121 1 4 1
140.91471941694772 39.114552721583735 1.829121 1 4 1
140.91437962779992 39.11472277617198 1.829121 1 4 1
140.9141313528137 39.114624985726515 1.829121 1 4 1
140.917165175886 39.1137370471043 1.531908 1 4 1
140.9154213230781 39.11464517080289 1.829121 1 4 1
140.91538217448485 39.11543312329618 1.829121 1 4 1
140.9160336624545 39.115489337432464 1.829121 1 4 1
140.91723239803525 39.1146573772133 1.531908 1 4 1
140.91774077897293 39.114632268940575 1.531908 1 4 1
140.9175808466569 39.115027051595405 1.531908 1 4 1
140.91642537028528 39.11586111192972 1.829121 1 4 1
140.9168320591337 39.11619587714744 1.531908 1 4 1
140.9187876690256 39.11562389326335 1.531908 1 4 1
140.91873607429613 39.116161064179046 1.531908 1 4 1
140.918816796179 39.116551201070656 1.531908 1 4 1
140.91790175457155 39.11683777937233 1.531908 1 4 0
140.91853553421225 39.117232743434485 1.531908 1 4 1
140.91765021872814 39.11772552585557 1.531908 1 4 1
140.92134652998539 39.11923726828352 1.531908 1 4 1
140.92160224112163 39.122007701395646 1.531908 1 4 1
140.9226035059876 39.12394360076823 1.531908 1 4 1
140.92390493339144 39.124093590537775 1.531908 1 4 1
140.90858923642529 39.114723488310645 1.829121 1 4 1
140.90989602717434 39.11449427264653 1.829121 1 4 1
140.91075200426408 39.115315997721346 1.829121 1 4 1
140.91149621917864 39.11622007389406 1.829121 1 4 1
140.91234453966229 39.115640654965695 1.829121 1 4 1
140.91235686087902 39.11627094408344 1.829121 1 4 1
140.91306270792745 39.11664594477701 1.829121 1 4 1
140.8991997331193 39.12743963558963 4.149619 1 4 1
140.92037405381012 39.08629545858095 1.531908 1 5 1
140.9190762229164 39.08670735812847 1.531908 1 5 1
140.92146264928755 39.08670755342039 1.531908 1 5 1
140.91931262642134 39.08841921936786 1.531908 1 5 1
140.91972967394517 39.08862857068892 1.531908 1 5 1
140.92537090951708 39.08857371959098 1.531908 1 5 1
140.9149766404954 39.08935225830093 1.829121 1 5 1
140.9143246778623 39.08953382541507 1.829121 1 5 1
140.9132743857875 39.0911809797136 1.829121 1 5 1
140.9116462292938 39.09006486492928 1.829121 1 5 1
140.91116310822102 39.090581225210656 1.829121 1 5 1
140.90484842059132 39.094326757342245 1.829121 1 5 1
140.90538241345976 39.09462832465966 1.829121 1 5 1
140.90584443900403 39.09578433887233 1.829121 1 5 1
140.90620687550418 39.095197255137265 1.829121 1 5 1
140.9067237350873 39.094959668009174 1.829121 1 5 1
140.9073450870285 39.09475470300009 1.829121 1 5 1
140.90591386581806 39.094362435834675 1.829121 1 5 1
140.9063092061296 39.09411307996741 1.829121 1 5 1
140.90715969848222 39.09387320976068 1.829121 1 5 1
140.90950697608895 39.090725754559315 1.829121 1 5 1
140.91004521669288 39.09109904487471 1.829121 1 5 1
140.9091442393162 39.09133676247473 1.829121 1 5 1
140.90874468603874 39.091469699597184 1.829121 1 5 1
140.90817655447202 39.09154483746371 1.829121 1 5 1
140.90758996422787 39.093676379704505 1.829121 1 5 1
140.90768253794 39.09379827520191 1.829121 1 5 1
140.90834882273637 39.093668489262264 1.829121 1 5 1
140.9085961070719 39.093572775653875 1.829121 1 5 1
140.9088931684416 39.09349439387938 1.829121 1 5 1
140.91037593422334 39.09248288614565 1.829121 1 5 1
140.90929516005306 39.093510627080676 1.829121 1 5 1
140.91046965274296 39.0937173853704 1.829121 1 5 1
140.91022959110143 39.0931852539004 1.829121 1 5 1
140.9124536914733 39.09192608255222 1.829121 1 5 1
140.91189012509486 39.09225191595945 1.829121 1 5 1
140.9112375253755 39.09279130926826 1.829121 1 5 1
140.91168145140995 39.09297510116593 1.829121 1 5 1
140.91202948906107 39.0934614669234 1.829121 1 5 1
140.91144373938548 39.09351233450125 1.829121 1 5 1
140.91099395585604 39.09406230229616 1.829121 1 5 1
140.9113032186574 39.093991299663664 1.829121 1 5 1
140.9113289200253 39.09459140875297 1.829121 1 5 1
140.91174551935774 39.09442291292522 1.829121 1 5 1
140.9120804623091 39.09443162084507 1.829121 1 5 1
140.9128104307902 39.09284028145285 1.829121 1 5 1
140.91331623827975 39.093352175024435 1.829121 1 5 1
140.91458685363375 39.09358308340799 1.829121 1 5 1
140.9146427905489 39.09348626035825 1.829121 1 5 1
140.9138343052248 39.093822341284486 1.829121 1 5 1
140.9160918845977 39.094783717023184 1.829121 1 5 1
140.91738514110486 39.09244016701149 1.531908 1 5 1
140.9181658210607 39.09339776746726 1.531908 1 5 1
140.91986645426354 39.092537594411105 1.531908 1 5 1
140.92008129183083 39.09255955521877 1.531908 1 5 1
140.92013751636 39.09357686984711 1.531908 1 5 1
140.921386630923 39.09281689580616 1.531908 1 5 1
140.9217530659686 39.09325094029858 1.531908 1 5 1
140.92208371223154 39.09285930859569 1.531908 1 5 1
140.9224211673434 39.09231563630182 1.531908 1 5 1
140.92279086182936 39.09256117203252 1.531908 1 5 1
140.92629536245582 39.0922347244671 1.531908 1 5 1
140.92759712206566 39.0934087920463 1.531908 1 5 1
140.9271601358249 39.092455482010315 1.531908 1 5 1
140.92415610783132 39.09569844531226 1.531908 1 5 1
140.92423476730787 39.0959421304216 1.531908 1 5 1
140.9244139227059 39.09414678689038 1.531908 1 5 1
140.92467921406796 39.09446099739201 1.531908 1 5 1
140.92542201091877 39.09388842956145 1.531908 1 5 1
140.92572808570714 39.09427203184483 1.531908 1 5 1
140.9265138451761 39.09366720566589 1.531908 1 5 1
140.92737324798446 39.09392792061554 1.531908 1 5 1
140.92668674128413 39.095630829717656 1.531908 1 5 1
140.92964794297387 39.09381135178127 1.531908 1 5 1
140.93128615513717 39.09334702206035 1.531908 1 5 1
140.93411724769373 39.09482204554636 1.531908 1 5 1
140.93437964560536 39.09481235433356 1.531908 1 5 1
140.93441739990195 39.09463575194162 1.531908 1 5 1
140.9361812931592 39.09720464617193 1.531908 1 5 1
140.93874357044714 39.09821452185686 1.531908 1 5 1
140.90989941102646 39.09631709875078 1.829121 1 5 1
140.9110405724574 39.09695737874762 1.829121 1 5 1
140.91140141350647 39.096521819602465 1.829121 1 5 1
140.92358800096576 39.098168715746205 1.531908 1 5 1
140.9251465482051 39.09746831123445 1.531908 1 5 1
140.92664169342586 39.09850882781871 1.531908 1 5 1
140.9250277960929 39.09932173075313 1.531908 1 5 1
140.92441073282546 39.10039199778594 1.531908 1 4 1
140.92511506688595 39.10039453054526 1.531908 1 4 1
140.9290603693833 39.09927758539193 1.531908 1 5 1
140.93557232895574 39.10184154373749 1.531908 1 4 1
140.93807918098358 39.10142369589852 1.531908 1 4 1
140.9374013429386 39.101005508997545 1.531908 1 4 1
140.94034034613807 39.102755753456215 1.531908 1 4 1
140.94060167386166 39.10137339790544 1.531908 1 4 1
140.9409629916063 39.10169100658031 1.531908 1 4 1
140.92765155224743 39.113161793554795 1.531908 1 4 1
140.93674436671952 39.116377731276316 1.531908 1 4 1
140.92462504821341 39.089873357328734 1.531908 1 5 1
140.9250767630903 39.09033804518084 1.531908 1 5 1
140.95671258956654 39.13221266858661 3.1079867 1 4 1
140.96004898143804 39.12603347950479 2.0697067 1 4 1
140.96162115051652 39.125900843595915 2.0697067 1 4 1
140.9622604764874 39.1259875210203 2.0697067 1 4 1
140.95746861345498 39.126762337143425 3.1079867 1 4 1
140.95836854961254 39.126186486711546 2.0697067 1 4 1
140.95792888930012 39.12628925267903 3.1079867 1 4 1
140.9566097460607 39.12417029353343 1.531908 1 4 1
140.9555865137262 39.12511147288631 3.1079867 1 4 1
140.95528054433245 39.12026219755773 1.531908 1 4 1
140.9497075913641 39.12140040963317 1.531908 1 4 1
140.95024428955597 39.12123938958529 1.531908 1 4 1
140.95108070921785 39.1204408381544 1.531908 1 4 1
140.9522176179243 39.12021528916585 1.531908 1 4 1
140.95190222502313 39.121981001159604 1.531908 1 4 1
140.951366105454 39.12254262689495 1.531908 1 4 1
140.94718409872863 39.12243831566925 1.531908 1 4 1
140.94716124433498 39.12307242764436 1.531908 1 4 1
140.9473026003807 39.12344125320926 1.531908 1 4 1
140.9476499823148 39.12356671337975 1.531908 1 4 1
140.94787480751296 39.12380600635757 1.531908 1 4 1
140.94693017959253 39.121405367743606 1.531908 1 4 1
140.94758910499374 39.12201025617646 1.531908 1 4 1
140.94774322928055 39.12272178905007 1.531908 1 4 1
140.94785550791886 39.12299580844205 1.531908 1 4 1
140.9485101660715 39.12348591681415 1.531908 1 4 1
140.95005946181666 39.123717864720284 1.531908 1 4 1
140.94159429690598 39.12022642236071 1.531908 1 4 1
140.9410368513739 39.12050041598115 1.531908 1 4 1
140.94069346323067 39.12061098834476 1.531908 1 4 1
140.9394609085381 39.12118169542419 1.531908 1 4 1
140.93935635590037 39.121573121633524 1.531908 1 4 1
140.9353404417212 39.123898369657674 1.531908 1 4 1
140.93547636626286 39.124569325931034 1.531908 1 4 1
140.93613739147455 39.12444448227113 1.531908 1 4 1
140.93181848472014 39.12485915813733 1.531908 1 4 1
140.93274152898516 39.124939989553205 1.531908 1 4 1
140.93101731242083 39.12515840730939 3.1079867 1 4 1
140.91611298747387 39.12448012178615 1.829121 1 4 1
140.9171220249918 39.12521510478648 3.1079867 1 4 1
140.91651286694085 39.125759705343725 4.149619 1 4 1
140.92208074093034 39.12580847341298 3.1079867 1 4 1
140.92169902835408 39.1261224212039 3.1079867 1 4 1
140.92411326624432 39.12728309144004 3.1079867 1 4 1
140.9241403854194 39.1277333826002 3.1079867 1 4 1
140.92521801249063 39.12987466175889 3.1079867 1 4 1
140.92893961167596 39.14143338730876 3.1079867 1 4 1
140.92782802863357 39.14310002864618 3.1079867 1 4 1
140.92780029713947 39.144068419715225 3.1079867 1 4 1
140.9167748695338 39.14448099581012 3.1079867 1 4 1
140.9157988411626 39.14528090512823 4.149619 1 4 1
140.91630423682085 39.14461651305986 4.149619 1 4 1
140.91402127358472 39.143666028858966 4.149619 1 4 1
140.91385757854331 39.14375278380333 4.149619 1 4 1
140.91522061971835 39.141283742803104 4.149619 1 4 1
140.9148181128536 39.138472411678514 4.149619 1 4 1
140.91466268897085 39.13744358998382 4.149619 1 4 1
140.91401383202427 39.136902428779706 4.149619 1 4 1
140.91331280190954 39.1382694939872 4.149619 1 4 1
140.91240872015 39.13825844526096 4.149619 1 4 1
140.91238497429194 39.137838812322784 4.149619 1 4 1
140.9126111406851 39.137517682506484 4.149619 1 4 1
140.91227734643377 39.137093162971624 4.149619 1 4 1
140.91290609235057 39.13679250676853 4.149619 1 4 1
140.9132236516305 39.136532173775244 4.149619 1 4 1
140.91340246039655 39.13592091555817 4.149619 1 4 1
140.91152958016426 39.13531913746761 4.149619 1 4 1
140.9134614471309 39.135193744788104 4.149619 1 4 1
140.91438384642854 39.13509408585689 4.149619 1 4 1
140.91699273176812 39.135290595665296 3.1079867 1 4 1
140.916927942563 39.13412181057142 3.1079867 1 4 1
140.91578955544057 39.13377122462113 4.149619 1 4 1
140.9162734579132 39.133770277928434 4.149619 1 4 1
140.916581998733 39.13355419734139 4.149619 1 4 1
140.91638913791368 39.1332294414363 4.149619 1 4 1
140.91628049963322 39.13306993600391 4.149619 1 4 1
140.91516410419652 39.13185406214895 4.149619 1 4 1
140.9149378156882 39.13257115234861 4.149619 1 4 0
140.91520254988401 39.130991724381566 4.149619 1 4 1
140.91424817614188 39.13143675873411 4.149619 1 4 1
140.91377675546488 39.130926511263816 4.149619 1 4 1
140.9120729737878 39.13135867993252 4.149619 1 4 1
140.91323059742805 39.13457336232327 4.149619 1 4 1
140.9143241126773 39.13292541260719 4.149619 1 4 1
140.9135417630903 39.13362602153451 4.149619 1 4 1
140.91364960409484 39.13037008270927 4.149619 1 4 1
140.91359905404678 39.129678081843444 4.149619 1 4 1
140.91369052411727 39.12877929132534 4.149619 1 4 1
140.91445173940392 39.128173309988746 4.149619 1 4 1
140.9145187776462 39.12841249246432 4.149619 1 4 1
140.9139599388489 39.12733484671075 4.149619 1 4 1
140.91397685564868 39.127965242464974 4.149619 1 4 1
140.9142341127175 39.12764035259189 4.149619 1 4 1
140.91322934025965 39.12695348238752 4.149619 1 4 1
140.91298860119076 39.12640176900277 4.149619 1 4 1
140.9126108279078 39.12552317968517 4.149619 1 4 1
140.91110837289955 39.126128639803454 4.149619 1 4 1
140.91068822921315 39.12499334401593 1.829121 1 4 1
140.91125722999544 39.12409236537537 1.829121 1 4 1
140.91116389225468 39.124381674387024 1.829121 1 4 1
140.9117501753968 39.12459035697901 1.829121 1 4 1
140.91223238167464 39.123940768590366 1.829121 1 4 1
140.9127396713737 39.1244295373064 1.829121 1 4 1
140.91191912077159 39.12371801712896 1.829121 1 4 1
140.91160040602486 39.12339440797171 1.829121 1 4 1
140.91176869532995 39.12313939292393 1.829121 1 4 1
140.911805323732 39.12285152231905 1.829121 1 4 1
140.9116009879703 39.12250384232323 1.829121 1 4 1
140.91207292020238 39.12204982507732 1.829121 1 4 1
140.91198445667274 39.119838699935435 1.829121 1 4 1
140.91183367829103 39.12000674571008 1.829121 1 4 1
140.9122189306641 39.121155294970116 1.829121 1 4 1
140.91230038278795 39.13879384181521 4.149619 1 4 1
140.91268779331733 39.1389735402978 4.149619 1 4 1
140.9127600989408 39.139173343810526 4.149619 1 4 1
140.9124885219269 39.139365431502924 4.149619 1 4 1
140.9125494853393 39.13955866089274 4.149619 1 4 1
140.9125427176196 39.13991516246114 4.149619 1 4 1
140.9132491667823 39.14006479508601 4.149619 1 4 1
140.91372104593853 39.140343134543535 4.149619 1 4 1
140.9129632282485 39.14029569317803 4.149619 1 4 1
140.91226982867414 39.14028109308785 4.149619 1 4 1
140.91210673562435 39.1407053777515 4.149619 1 4 1
140.91270306590076 39.140858751361876 4.149619 1 4 1
140.895804113671 39.13525697777919 4.149619 1 4 1
140.89823069212179 39.136462070113204 4.149619 1 4 1
140.89923482145565 39.13780682272285 4.149619 1 4 1
140.8870943662352 39.13888380473499 4.149619 1 4 1
140.88700538211026 39.139465523809626 4.149619 1 4 1
140.8874582892303 39.139574735146994 4.149619 1 4 1
140.91234789801675 39.14231063388516 4.149619 1 4 1
140.9122398582238 39.14287555392486 4.149619 1 4 1
140.90881608835602 39.141929629106485 4.149619 1 4 1
140.90934835223396 39.14237300019124 4.149619 1 4 1
140.90860909978338 39.142750495047686 4.149619 1 4 1
140.90932042272823 39.14302321748803 4.149619 1 4 1
140.90912812282363 39.14314311321108 4.149619 1 4 1
140.9080640450523 39.14421508459528 4.149619 1 4 1
140.91218035081005 39.14322437173382 4.149619 1 4 1
140.9121824831471 39.14334496345111 4.149619 1 4 1
140.9117675790486 39.14367569921758 4.149619 1 4 1
140.91129581231885 39.14482629001623 4.149619 1 4 1
140.91119030130292 39.145412953281415 4.149619 1 4 1
140.90978762004826 39.14552583163763 4.149619 1 4 1
140.90945986585453 39.14590463493472 4.149619 1 4 1
140.9101435669895 39.14624728482299 4.149619 1 4 1
140.9092625370374 39.14645114804792 4.149619 1 4 1
140.90767679694068 39.14538658796329 4.149619 1 4 1
140.91551583221727 39.14533711980953 4.149619 1 4 1
140.90340017748045 39.144815606124986 4.149619 1 4 1
140.9036345840557 39.145231119015754 4.149619 1 4 1
140.9039489329938 39.14701533769036 4.149619 1 4 1
140.9050553592526 39.14828569983239 4.149619 1 4 1
140.89867623159316 39.14914644618222 4.149619 1 4 1
140.89916790118707 39.14938966793702 4.149619 1 4 1
140.8996468036071 39.14893015481635 4.149619 1 4 1
140.90131130887607 39.14924069250394 4.149619 1 4 1
140.89942321931196 39.15033316983729 4.149619 1 4 1
140.90474899869477 39.149765391164486 4.149619 1 4 1
140.90351816479964 39.14967832065591 4.149619 1 4 1
140.90354410595327 39.15041319397467 4.149619 1 4 1
140.90252444935922 39.14969940854117 4.149619 1 4 1
140.90241114680393 39.150039233103634 4.149619 1 4 1
140.904855060841 39.151604572252346 4.149619 1 4 1
140.90301364824862 39.15111413023439 4.149619 1 4 1
140.90326920471026 39.15201851914763 4.149619 1 4 1
140.89107973575585 39.15297529658783 4.149619 1 4 1
140.89297530696945 39.16372326543836 4.149619 1 4 1
140.89494033210457 39.162265889892076 4.149619 1 4 1
140.88618836777013 39.15914102232833 4.149619 1 4 1
140.8884135279496 39.159435829646746 4.149619 1 4 1
140.89015018727565 39.15469047371935 4.149619 1 4 1
140.889642292114 39.15533419814423 4.149619 1 4 1
140.88936247114918 39.15561534190916 4.149619 1 4 1
140.88907968918474 39.15550043690368 4.149619 1 4 1
140.88818238331436 39.154389645043054 4.149619 1 4 1
140.88821302686338 39.15488290149283 4.149619 1 4 1
140.88782639104696 39.15535428614121 4.149619 1 4 1
140.88731693485184 39.155793747036356 4.149619 1 4 1
140.8873787680131 39.15612338916688 4.149619 1 4 1
140.8872074934813 39.156307715096716 4.149619 1 4 1
140.88670113526757 39.156388072557874 4.149619 1 4 1
140.88662870757364 39.15674162672833 4.149619 1 4 1
140.8866795003068 39.15709365385972 4.149619 1 4 1
140.88638167242962 39.15736070880262 4.149619 1 4 1
140.8861106245063 39.15759278155812 4.149619 1 4 1
140.89184685815232 39.15695872048479 4.149619 1 4 1
140.89302236650656 39.15686369393889 4.149619 1 4 1
140.8944856387265 39.157715273062955 4.149619 1 4 1
140.89471106805266 39.157734048936966 4.149619 1 4 1
140.89502616152268 39.1576415100568 4.149619 1 4 1
140.89542092026798 39.15755205511187 4.149619 1 4 1
140.89569369999356 39.15784545239216 4.149619 1 4 1
140.8958828050055 39.15766738568442 4.149619 1 4 1
140.89655347224337 39.158465944421884 4.149619 1 4 1
140.89671700769495 39.158634964060035 4.149619 1 4 1
140.89733847436253 39.15851772088603 4.149619 1 4 1
140.8968590810554 39.159152168212856 4.149619 1 4 1
140.89758761871545 39.15806434048633 4.149619 1 4 1
140.89711555416065 39.15700806331856 4.149619 1 4 1
140.89768589387785 39.15726253745088 4.149619 1 4 1
140.89748777554664 39.157373468406334 4.149619 1 4 1
140.89768327636065 39.15640526414784 4.149619 1 4 1
140.8990419757704 39.156378794357735 4.149619 1 4 1
140.89924206640535 39.15632715390446 4.149619 1 4 1
140.90116515344678 39.157106900318134 4.149619 1 4 1
140.90184409585666 39.158160159706334 4.149619 1 4 1
140.9008917541076 39.1595152374417 4.149619 1 4 1
140.90181851833614 39.155356667710535 4.149619 1 4 1
140.90186716887015 39.15574483299131 4.149619 1 4 1
140.90193671202846 39.15657013043335 4.149619 1 4 1
140.89147125161736 39.15805677697633 4.149619 1 4 1
140.89401091187582 39.15813735500869 4.149619 1 4 1
140.9013288022052 39.15922534260879 4.149619 1 4 1
140.89872815758022 39.15318037911492 4.149619 1 4 1
140.8998868488725 39.15123381931244 4.149619 1 4 1
140.90211921975603 39.150848567202864 4.149619 1 4 1
140.90192310312335 39.15121283014438 4.149619 1 4 1
140.9022757125299 39.1514439083071 4.149619 1 4 1
140.90096011204292 39.15344757749806 4.149619 1 4 1
140.90139846975717 39.15227169852902 4.149619 1 4 1
140.83277600142978 38.90696263327841 2.8356624 1 4 1
140.84053109964933 38.90841103703141 2.6925886 1 4 0
140.91583035629765 39.135174724068555 4.149619 1 4 1
140.8658739988164 39.083035866882966 1.4832358 1 4 1
140.866186119018 39.08334096728123 2.8321278 1 4 1
140.86679772633997 39.08347906361233 2.8321278 1 4 1
140.87146001528697 39.08657657320398 2.8321278 1 4 1
140.87151782640134 39.08673577132569 2.8321278 1 4 1
140.87202566924807 39.08650817086277 2.8321278 1 4 1
140.86865505058344 39.08743096592207 2.8321278 1 4 1
140.8683047483016 39.08819224065432 2.8321278 1 4 1
140.86855052643142 39.088337803234275 2.8321278 1 4 1
140.8692899744983 39.08813513697271 2.8321278 1 4 1
140.86962583122693 39.08823140990803 2.8321278 1 4 1
140.86892213553932 39.088849948962824 2.8321278 1 4 1
140.86087526709076 39.09157815777247 2.8321278 1 4 1
140.86100938845175 39.09173629693217 2.8321278 1 4 1
140.8483052044944 39.0861637062735 2.8321278 1 4 1
140.84857015146545 39.08608086729993 2.8321278 1 4 1
140.8485822120589 39.08648173346188 2.8321278 1 4 1
140.85088678371713 39.08619147725921 2.8321278 1 4 1
140.8533686334037 39.085794615574336 2.8321278 1 4 1
140.85303601609272 39.103004086353984 2.8321278 1 4 1
140.85211389715914 39.10314063609712 2.8321278 1 4 1
140.86143994862178 39.103210006883046 2.8321278 1 4 1
140.86188491105622 39.10304751412176 2.8321278 1 4 1
140.86210948337194 39.10295358705268 2.8321278 1 4 1
140.86174905780607 39.10456883219223 2.8321278 1 4 1
140.85655543508673 39.11402652643561 2.8321278 1 4 1
140.85966931726372 39.11172847791193 2.8321278 1 4 1
140.85964431143267 39.11091576398688 2.8321278 1 4 1
140.86738961446298 39.117410886482084 2.8321278 1 4 1
140.87768751697712 39.11881746236512 1.829121 1 4 1
140.87770288119668 39.118949976971756 1.829121 1 4 1
140.86805015782645 39.125740415075505 3.5914164 1 4 1
140.87832775193695 39.12859529683466 4.149619 1 4 1
140.87915701049747 39.12909456844264 4.149619 1 4 1
140.87249883104744 39.106200220912044 2.8321278 1 4 1
140.87345027849975 39.100193153895056 2.8321278 1 4 1
140.87379270230534 39.100186407674556 2.8321278 1 4 1
140.8762796862714 39.10125514512462 1.829121 1 4 1
140.8763687180345 39.10131604059842 1.829121 1 4 1
140.87719415711726 39.102403116440904 1.829121 1 4 1
140.87736957984612 39.102569737831324 1.829121 1 4 1
140.87923589673088 39.09602876257061 1.829121 1 4 1
140.88046230749708 39.09619584106806 1.829121 1 4 1
140.88282765066916 39.09583820691471 1.829121 1 4 1
140.88309102653108 39.09598271860618 1.829121 1 4 1
140.88333998587612 39.096161049866424 1.829121 1 4 1
140.8754997773841 39.0917799110657 1.829121 1 4 1
140.87361020714047 39.089648291330796 2.8321278 1 4 1
140.8739247904156 39.08967038459112 2.8321278 1 4 1
140.87413474211496 39.08984808330522 2.8321278 1 4 1
140.87426841728137 39.090014910204644 2.8321278 1 4 1
140.87488965124024 39.08952958175442 2.8321278 1 4 1
140.8751030620516 39.090122611782725 1.829121 1 4 1
140.8754960526283 39.08983890157208 1.829121 1 4 1
140.8799950453594 39.08451335354208 1.829121 1 4 1
140.87733360492797 39.08795234401706 1.829121 1 4 1
140.8774205653717 39.08815078003284 1.829121 1 4 1
140.8846392783334 39.08741608625045 1.829121 1 4 1
140.88493631936558 39.08747658147418 1.829121 1 4 1
140.8762424628324 39.08881192185007 1.829121 1 4 1
140.8515599787485 39.085954037162004 2.8321278 1 4 1
140.8479746760221 39.083174365031994 1.4832358 1 4 1
140.84855272936122 39.083572818854876 2.8321278 1 4 1
140.83673493594128 39.084798735206846 2.8321278 1 4 1
140.82750483116698 39.08359966192608 1.7984948 1 4 1
140.8278783405202 39.08354749988695 1.7984948 1 4 1
140.82903474410517 39.083530398262965 1.7984948 1 4 1
140.8294493501017 39.08335832980117 1.7984948 1 4 1
140.82919170549857 39.083152382908246 1.8324624 1 4 1
140.83276232290115 39.07930012416096 1.8324624 1 4 1
140.83331519299944 39.079228614156456 1.8324624 1 4 1
140.83434326759132 39.07880194198331 1.4832358 1 4 1
140.83511596729986 39.078743800030004 1.4832358 1 4 1
140.83769707448357 39.07989302220982 1.4832358 1 4 1
140.84173021663938 39.07946184547845 1.4832358 1 4 1
140.84206431772327 39.07938386421685 1.4832358 1 4 1
140.83114629539932 39.073972864618085 1.8324624 1 4 1
140.83143657098054 39.07410019015876 1.8324624 1 4 1
140.83412811277032 39.0757528679147 1.4832358 1 4 1
140.83913584241694 39.07183806722056 1.4832358 1 4 1
140.84010919600726 39.07187010431443 1.4832358 1 4 1
140.84105895169446 39.06983814001363 1.4832358 1 4 1
140.84153566724947 39.06774897045283 1.4832358 1 4 1
140.84311692858623 39.067565359675584 1.4832358 1 4 1
140.84116083958043 39.074453627009234 1.4832358 1 4 1
140.84183898284869 39.07517473427283 1.4832358 1 4 1
140.84458643903886 39.07527352368102 1.4832358 1 4 1
140.84617043727744 39.07523715904054 1.4832358 1 4 1
140.8462043508855 39.075398144447774 1.4832358 1 4 1
140.84759895007326 39.07587321215199 1.4832358 1 4 1
140.84943978464253 39.07457608066185 1.4832358 1 4 1
140.85004841374655 39.07494033000497 1.4832358 1 4 1
140.85488034885137 39.072455517104316 1.4832358 1 4 1
140.8541325315981 39.07641957631628 1.4832358 1 4 1
140.85429118714885 39.07905436145363 1.4832358 1 4 1
140.85454728954562 39.07701400639482 1.4832358 1 4 1
140.85477191405369 39.0772934374959 1.4832358 1 4 1
140.86395000016105 39.081340724118526 1.4832358 1 4 1
140.86572666478557 39.0775357409693 1.4832358 1 4 1
140.86641101082628 39.0788848322978 1.4832358 1 4 1
140.86616868487542 39.0785037112719 1.4832358 1 4 1
140.86863711499885 39.07720152508681 1.4832358 1 4 1
140.86638653742762 39.07160763738146 1.4832358 1 4 1
140.8667718499229 39.07225727722236 1.4832358 1 4 1
140.8644706825742 39.07001876464819 1.4832358 1 4 1
140.8616819220739 39.070967209587224 1.4832358 1 4 1
140.8553848567596 39.06616035357309 1.4832358 1 4 1
140.85921710423054 39.06672753548275 1.4832358 1 4 1
140.8659559448292 39.06741724725108 1.4832358 1 4 1
140.86618182433682 39.06722917117762 1.4832358 1 4 1
140.871407426779 39.06234422638538 1.4832358 1 4 1
140.87096741979627 39.06240519326525 1.4832358 1 4 1
140.8708216235466 39.06248006244266 1.4832358 1 4 1
140.86432739886035 39.06158564009553 1.4832358 1 4 1
140.8643324873731 39.06170718603396 1.4832358 1 4 1
140.86420814546986 39.06180830192203 1.4832358 1 4 1
140.8642706048022 39.06076347865261 1.4832358 1 4 1
