103.29937195217781 27.105793235442892 2.6147828 5 9 1
103.29934962130683 27.10726523163136 2.6147828 5 9 1
103.30763702710195 27.10567568002706 2.6147828 5 14 1
103.30894974956799 27.106958543106785 2.6147828 5 14 1
103.31265623855424 27.106079246943498 2.6147828 5 14 1
103.3138237492664 27.10837173240977 2.6147828 5 14 1
103.32596654187398 27.10619116227446 2.6147828 5 14 1
103.34069449931037 27.107668802317086 2.092241 5 14 1
103.37271411090546 27.10709022378203 2.092241 5 12 1
103.3744214033567 27.1083413041825 2.092241 5 12 1
103.37400942377137 27.10870098099099 2.092241 5 12 1
103.37415796612906 27.109267883116786 2.092241 5 12 1
103.37515847749252 27.10907282835667 1.2211484 5 12 1
103.37555158987328 27.109416523922032 1.2211484 5 12 1
103.37948675327289 27.106969564233573 1.2211484 5 12 1
103.38116938704789 27.107276227094957 1.2211484 5 12 1
103.3828238839135 27.107083743426642 1.2211484 5 12 1
103.43627064872175 27.111127000169127 2.860623 5 14 1
103.41063268085985 27.11090225838698 1.2211484 5 14 1
103.40647525309362 27.11006623806465 1.2211484 5 14 1
103.40556776436841 27.110079855766237 1.2211484 5 14 1
103.39856910313006 27.11083459597896 1.2211484 5 12 1
103.37615076497828 27.110410108019472 1.2211484 5 12 1
103.37647538493947 27.11099122190174 1.2211484 5 12 1
103.30553291714709 27.10974317745394 2.6147828 5 14 1
103.3046644760058 27.108585664291073 2.6147828 5 14 1
103.30307021646524 27.110292892027267 2.6147828 5 14 1
103.29717837588942 27.109619775381837 2.6147828 5 9 1
103.29444947294374 27.108695722469566 2.6147828 5 9 1
103.29371813385619 27.108303952851482 2.6147828 5 9 1
103.29719976395418 27.111679989465774 2.6147828 5 9 1
103.29759740561362 27.112643834243816 2.6147828 5 9 1
103.29751825959545 27.112868771688436 2.6147828 5 9 1
103.28815942631651 27.109795772152488 0.85077584 5 9 1
103.28811407872018 27.108444720097165 0.85077584 5 9 1
103.28073040007918 27.112386788460473 0.85077584 5 9 1
103.31469371073906 27.112398591320865 2.6147828 5 14 1
103.31777918327472 27.111918629961625 2.6147828 5 14 1
103.36011955549338 27.113396910116702 2.092241 5 12 1
103.37703641058346 27.113581825274245 1.2211484 5 12 1
103.38067673146816 27.11251076861086 1.2211484 5 12 1
103.37660045376649 27.11154751990715 1.2211484 5 12 1
103.38287964563453 27.112635411561264 1.2211484 5 12 1
103.38134175557232 27.112968686002443 1.2211484 5 12 1
103.38307536605816 27.11339401510894 1.2211484 5 12 1
103.38397940107814 27.113269571967663 1.2211484 5 12 1
103.38613692505858 27.113555392783088 1.2211484 5 12 1
103.38699193496876 27.11334484799659 1.2211484 5 12 1
103.38895289888634 27.114526528771833 1.2211484 5 12 1
103.41168103555792 27.113926402950288 1.2211484 5 14 1
103.41490001040864 27.112538653579826 1.2211484 5 14 1
103.41525589781837 27.11298251520424 1.2211484 5 14 1
103.41563828071348 27.11319212049411 1.2211484 5 14 1
103.4172912970247 27.11381162074411 2.860623 5 14 1
103.41642902245394 27.11262466437098 1.2211484 5 14 1
103.41718147675597 27.113007316073464 2.860623 5 14 1
103.42179312501837 27.11242787735393 2.860623 5 14 1
103.42242335477675 27.113572131793077 2.860623 5 14 1
103.4200611279513 27.11240274388311 2.860623 5 14 1
103.41949635790559 27.112901035008043 2.860623 5 14 1
103.41896635057356 27.113280407234644 2.860623 5 14 1
103.41899884165609 27.112282191687413 2.860623 5 14 1
103.41877602061625 27.112928334429032 2.860623 5 14 1
103.41839906380147 27.114553232554574 2.860623 5 14 1
103.41801410248449 27.115642070131173 2.860623 5 14 1
103.4194364904029 27.115935358899783 2.860623 5 14 1
103.42006694245671 27.116290240299378 2.860623 5 14 1
103.42505385430044 27.11407388941153 2.860623 5 14 1
103.42639149053905 27.11327981719644 2.860623 5 14 1
103.42707950391635 27.113316967164682 2.860623 5 14 1
103.42782122010176 27.113389164585627 2.860623 5 14 1
103.42719849115429 27.111796457365276 2.860623 5 14 1
103.42767753892906 27.1120498055763 2.860623 5 14 1
103.42520612959031 27.115048270090817 2.860623 5 14 1
103.43054526652968 27.114016337297073 2.860623 5 14 1
103.29881836655049 27.116569117907506 2.6147828 5 9 1
103.30947007001669 27.11672540754633 2.6147828 5 14 1
103.3602370815856 27.117435389813586 2.092241 5 12 1
103.36284914728508 27.116659503382817 2.092241 5 12 1
103.36745301655404 27.116371784337282 2.092241 5 12 1
103.36835643928065 27.11595576202128 2.092241 5 12 1
103.37135604499122 27.11587176577443 2.092241 5 12 1
103.37041106304272 27.115869731692865 2.092241 5 12 1
103.37217552125755 27.1154332655112 2.092241 5 12 1
103.3780829947962 27.114874018975694 1.2211484 5 12 1
103.40887166082811 27.118224806203138 1.2211484 5 14 1
103.41811236998488 27.118252256518677 2.860623 5 14 1
103.41551967619007 27.1157283252171 1.2211484 5 14 1
103.4224430224557 27.117380062247285 2.860623 5 14 1
103.42410165013486 27.1159458739756 2.860623 5 14 1
103.42485999856953 27.115239790055277 2.860623 5 14 1
103.42115191517789 27.12160165750097 2.860623 5 14 1
103.41076326023881 27.121125629985777 1.2211484 5 14 1
103.37240659146701 27.120828964327096 2.092241 5 12 1
103.3760749447581 27.121285716703284 1.2211484 5 12 1
103.3711875844446 27.11944651155005 2.092241 5 12 1
103.4296588459972 27.116093751484186 2.860623 5 14 1
103.29557457124515 27.119602198442383 2.6147828 5 9 1
103.29561879485111 27.118994107674663 2.6147828 5 9 1
103.29584935535654 27.118384528739583 2.6147828 5 9 1
103.29607041858287 27.118054597137792 2.6147828 5 9 1
103.29570033895656 27.118683962661226 2.6147828 5 9 1
103.2979975723973 27.11933968172261 2.6147828 5 9 1
103.34438477121319 27.119474785292354 2.092241 5 14 1
103.34640195455911 27.120837933673652 2.092241 5 14 1
103.34654636199078 27.11970172831646 2.092241 5 14 1
103.3902865737069 27.120611454698654 1.2211484 5 12 1
103.41800239799532 27.1213379271474 2.860623 5 14 1
103.4243776928835 27.122377607484676 2.860623 5 14 1
103.38161002476761 27.12264720729178 1.2211484 5 12 1
103.38179097712556 27.12170862611523 1.2211484 5 12 1
103.29446221275445 27.122821876690214 2.6147828 5 9 1
103.2952310309612 27.12142959347082 2.6147828 5 9 1
103.28607649983053 27.123430067641653 0.85077584 5 9 1
103.28611394895617 27.123909482589873 0.85077584 5 9 1
103.28652952075224 27.126262867483984 3.4229147 5 9 1
103.29427157916126 27.123495819337226 2.6147828 5 9 1
103.29815814393996 27.124991417178222 2.6147828 5 9 1
103.31108577508503 27.126288224557307 5.6936574 5 14 1
103.30950291039207 27.124424292711474 2.6147828 5 14 1
103.31368171067467 27.126657383816188 5.6936574 5 14 1
103.35842368293424 27.125072563579856 4.4317913 5 12 1
103.35725647870146 27.124984102578463 2.092241 5 12 1
103.38676204829966 27.125737256322886 4.1304317 5 12 1
103.39109580764391 27.125957436709943 4.1304317 5 12 1
103.40691748537947 27.126926363653535 4.1304317 5 14 1
103.41160313257623 27.126251038746783 4.1304317 5 14 1
103.42268229747629 27.1270489931244 1.0233148 5 14 1
103.41545170504116 27.124187951689198 1.2211484 5 14 1
103.26478928561546 27.128203267003165 3.4229147 5 9 1
103.26828830490756 27.128120702178574 3.4229147 5 9 1
103.27801384247259 27.128908277619242 3.4229147 5 9 1
103.28184938599928 27.128824688206322 3.4229147 5 9 1
103.28637831115482 27.127579592439602 3.4229147 5 9 1
103.28891250432977 27.128651801079773 3.4229147 5 9 1
103.29386902114773 27.128877099948134 5.6936574 5 9 1
103.29415747022576 27.127939221692788 5.6936574 5 9 1
103.29506481732484 27.12827841473086 5.6936574 5 9 1
103.30610195916067 27.128505837192932 5.6936574 5 14 1
103.36220301011748 27.13053524825236 4.4317913 5 12 1
103.36689653855501 27.130118261489148 4.4317913 5 12 1
103.37547958532318 27.1294779262333 4.1304317 5 12 1
103.3782489618651 27.130315328939794 4.1304317 5 12 1
103.29422314971976 27.13134596828642 5.6936574 5 9 1
103.29486086636301 27.13168742793744 5.6936574 5 9 1
103.29537185190891 27.131261657412004 5.6936574 5 9 1
103.29542807932654 27.130458474385076 5.6936574 5 9 1
103.29526279080315 27.129997678701802 5.6936574 5 9 1
103.29626017400759 27.131131836394683 5.6936574 5 9 1
103.29736949545267 27.13398407954675 5.6936574 5 9 1
103.29712357467432 27.13306660749445 5.6936574 5 9 1
103.2987320542449 27.13404668895577 5.6936574 5 9 1
103.29827588939038 27.13337401663949 5.6936574 5 9 1
103.30465575982515 27.131141831061473 5.6936574 5 14 1
103.30445209448673 27.13173037648907 5.6936574 5 14 1
103.37300181175691 27.13160329591692 4.4317913 5 12 1
103.39136830676249 27.13334582431107 4.1304317 5 12 1
103.29787657678071 27.134189049325993 5.6936574 5 9 1
103.34019866965497 27.134220080447964 4.4317913 5 14 1
103.38500231566243 27.13533080480271 4.1304317 5 12 1
103.38415809793433 27.13623756511081 4.1304317 5 12 1
103.3854701465006 27.13732875237202 4.1304317 5 12 1
103.38293744305186 27.13798416212443 4.1304317 5 12 1
103.38515607385594 27.137894755202826 4.1304317 5 12 1
103.39512847917818 27.13465241085241 4.1304317 5 12 1
103.30209063479589 27.13578606127591 5.6936574 5 14 1
103.30312058530745 27.13615656183506 5.6936574 5 14 1
103.30330669986616 27.13514005929799 5.6936574 5 14 1
103.30498454413214 27.134840659505002 5.6936574 5 14 1
103.30365359865573 27.13610809335679 5.6936574 5 14 1
103.30539194989582 27.136109979252677 5.6936574 5 14 1
103.3357087209711 27.133007218043804 4.4317913 5 14 1
103.41946397109443 27.013104723279607 1.7671351 5 9 1
103.42188179713358 27.014040755414744 1.7671351 5 9 1
103.29113820084015 27.12570327812855 3.4229147 5 9 1
103.29764303645945 27.124286784915466 2.6147828 5 9 1
103.31705825836522 27.124519272680395 2.6147828 5 14 1
103.3276525817459 27.125309401455837 5.6936574 5 14 1
103.333518011796 27.126224599371508 4.4317913 5 14 1
103.29817586335277 27.11917755749254 2.6147828 5 9 1
103.30338535039273 27.119702759689282 2.6147828 5 14 1
103.32665700697085 27.12159432277712 2.6147828 5 14 1
103.34458716056385 27.120399816382015 2.092241 5 14 1
103.26644620777823 27.114380690188195 0.85077584 5 9 1
103.29582806440958 27.11535724359875 2.6147828 5 9 1
103.29899539474441 27.114194090779698 2.6147828 5 9 1
103.30375182056682 27.115958194369604 2.6147828 5 14 1
103.31723637890492 27.115797854197346 2.6147828 5 14 1
103.31937308938359 27.116976047744554 2.6147828 5 14 1
103.31941494672026 27.116706879112446 2.6147828 5 14 1
103.33322356550819 27.11638875942847 2.6147828 5 14 1
103.33385491904622 27.117379520144254 2.092241 5 14 1
103.33041372136469 27.116420257651107 2.6147828 5 14 1
103.42276832310773 27.116933613378553 2.860623 5 14 1
103.28871385228761 27.111862636860472 0.85077584 5 9 1
103.33117100847988 27.1124471054237 2.6147828 5 14 1
103.40323687111672 27.112807624120887 1.2211484 5 14 1
103.3283787799813 27.10919531989441 2.6147828 5 14 1
103.32312171807827 27.103719898980096 2.6147828 5 14 1
103.32152469379285 27.103595181847194 2.6147828 5 14 1
103.30157797722772 27.10651724729506 2.6147828 5 14 1
103.30199809135623 27.10525198269967 2.6147828 5 14 1
103.2995694011008 27.105199415833738 2.6147828 5 9 1
103.3043008304871 27.100760870001476 2.6147828 5 14 1
103.3133061477156 27.100796579098148 2.6147828 5 14 1
103.3158443945984 27.09951147166836 2.6147828 5 9 1
103.31410726578206 27.10016723006419 2.6147828 5 14 1
103.31475248505534 27.099818333070946 2.6147828 5 9 1
103.31514928731397 27.099678933675126 2.6147828 5 9 1
103.31679992489867 27.101224617029246 2.6147828 5 14 1
103.3169244026109 27.09914779692108 2.6147828 5 9 1
103.32020858530058 27.100967746155224 2.6147828 5 14 1
103.27140423813509 27.096218082229143 0.85077584 5 9 1
103.29489328150075 27.097632791341553 2.6147828 5 9 1
103.30244759918948 27.099365711729362 2.6147828 5 9 1
103.3021416031671 27.097703574442825 2.6147828 5 9 1
103.30551864187656 27.09770084929777 2.6147828 5 9 1
103.31088254483886 27.09764280904035 2.6147828 5 9 1
103.32449116737953 27.097514777102077 2.6147828 5 9 1
103.40649757096728 27.099807881840857 1.2211484 5 14 1
103.30616713981955 27.09314034346645 2.6147828 5 9 1
103.30155317388378 27.09418949361682 2.6147828 5 9 1
103.30323510451612 27.095449732567754 2.6147828 5 9 0
103.30381259352633 27.095288604190934 2.6147828 5 9 1
103.30418024795735 27.094837445885123 2.6147828 5 9 1
103.30311163757737 27.094535410177993 2.6147828 5 9 1
103.30133796846393 27.095300338108167 2.6147828 5 9 1
103.30178833949772 27.09313691609549 2.6147828 5 9 1
103.30116562646847 27.09650635848407 2.6147828 5 9 1
103.3014669684131 27.096961185975633 2.6147828 5 9 1
103.29762924899016 27.095685664213544 2.6147828 5 9 1
103.297165687789 27.0955956085179 2.6147828 5 9 1
103.2965103698971 27.093483722704427 2.6147828 5 9 1
103.26729173413494 27.094193211821192 0.85077584 5 9 1
103.27921307582388 27.09066561263951 0.85077584 5 9 1
103.43504264041535 27.09364081961097 2.860623 5 14 1
103.30045662459237 27.08618341453477 2.6147828 5 9 1
103.30108910629413 27.087615988589285 2.6147828 5 9 1
103.30153140981824 27.089499653241695 2.6147828 5 9 1
103.30938146719512 27.087351179824786 2.6147828 5 9 1
103.39717994601031 27.089708203203667 1.2211484 5 9 1
103.3081163978192 27.07579436140889 1.5490164 5 9 1
103.31147346794135 27.075557009679443 1.5490164 5 9 1
103.31425646519659 27.07587624174592 1.5490164 5 9 1
103.30818762650405 27.07353747357157 1.5490164 5 9 1
103.37008712243271 27.07278560326967 1.4615598 5 9 1
103.36783639017875 27.071025407116334 1.4615598 5 9 1
103.37050222185447 27.0740742292185 1.4615598 5 9 1
103.37099941181175 27.074629541884764 1.4615598 5 9 1
103.37083915327648 27.071667801294186 1.4615598 5 9 1
103.43135590318539 27.00476095709337 1.7671351 5 9 1
103.29468735828922 27.07057061320491 1.5490164 5 9 1
103.29593046955347 27.07000723898015 1.5490164 5 9 1
103.29735594940394 27.071255236813162 1.5490164 5 9 1
103.29639111974708 27.06966171278011 1.5490164 5 9 1
103.39746601278482 27.06918405788759 1.8961961 5 9 1
103.36559076661524 27.066434725448755 1.4615598 5 9 1
103.29430959430239 27.063746782980363 1.5490164 5 9 1
103.31437366637736 27.0592562937264 1.5490164 5 9 1
103.3718685729905 27.05980831819279 1.4615598 5 9 1
103.3774041071881 27.059657216306856 1.8961961 5 9 1
103.31264788637998 27.05455327713152 1.5490164 5 9 1
103.27620451946584 27.05018464354149 1.4862189 5 9 1
103.27618164365849 27.05087356847413 1.4862189 5 9 1
103.27559565310771 27.04977311645503 1.4862189 5 9 1
103.27938681123688 27.043182970927887 1.4862189 5 9 1
103.27934905250467 27.042294924170122 1.4862189 5 9 1
103.28853325371405 27.044402011095265 1.4862189 5 9 1
103.28374715446924 27.038257193588947 3.0940723 5 9 1
103.32953202284747 27.041249183530986 0.5748551 5 9 1
103.36414766991282 27.03906482600846 1.6819032 5 9 1
103.36446842265089 27.040669189818246 1.6819032 5 9 1
103.36373807392128 27.038202637375576 1.6819032 5 9 1
103.41417578093768 27.03710757160225 1.4206953 5 9 1
103.41330988217291 27.035727990398783 1.4206953 5 9 1
103.43400603888861 27.035675828155902 1.7671351 5 9 1
103.43536428876155 27.035340026846917 1.7671351 5 9 1
103.42848092526798 27.03511995961968 1.7671351 5 9 1
103.419005102167 27.030423472539308 1.7671351 5 9 1
103.41974263263874 27.029986212395183 1.7671351 5 9 1
103.29589727163643 27.02897635318043 0.5748551 5 9 1
103.42160196160543 27.012508120924373 1.7671351 5 9 1
103.41880414637285 27.0123243419699 1.7671351 5 9 1
103.4245845965367 27.012505515754224 1.7671351 5 9 1
103.42142341036138 27.011026776780827 1.7671351 5 9 1
103.4216965783454 27.011674370625922 1.7671351 5 9 1
103.42664834542514 27.00618521933136 1.7671351 5 9 1
103.40316963749054 27.037387405825747 1.4206953 5 9 1
103.2539993159007 27.00059411641943 3.0940723 5 9 0
103.25396447162048 27.002849333105388 3.0940723 5 9 0
103.25392962325834 27.005104549027557 3.0940723 5 9 0
103.25389477081391 27.007359764185882 3.0940723 5 9 0
103.25385991428689 27.00961497858033 3.0940723 5 9 0
103.25382505367686 27.01187019221084 3.0940723 5 9 0
103.25379018898352 27.01412540507737 3.0940723 5 9 0
103.25375532020648 27.016380617179866 3.0940723 5 9 0
103.25372044734543 27.018635828518292 3.0940723 5 9 0
103.2536855704 27.02089103909259 3.0940723 5 9 0
103.25365068936983 27.02314624890273 3.0940723 5 9 0
103.25361580425458 27.02540145794865 3.0940723 5 9 0
103.25358091505389 27.0276566662303 3.0940723 5 9 0
103.25354602176742 27.029911873747658 3.0940723 5 9 0
103.25351112439482 27.032167080500653 3.0940723 5 9 0
103.25347622293573 27.034422286489246 3.0940723 5 9 0
103.2534413173898 27.036677491713387 3.0940723 5 9 0
103.25340640775669 27.03893269617304 3.0940723 5 9 0
103.25337149403602 27.04118789986814 3.0940723 5 9 0
103.25333657622748 27.043443102798662 1.4862189 5 9 0
103.25330165433067 27.045698304964546 1.4862189 5 9 0
103.2532667283453 27.047953506365747 1.4862189 5 9 0
103.25323179827095 27.050208707002223 1.4862189 5 9 0
103.25319686410731 27.052463906873918 1.4862189 5 9 0
103.25316192585403 27.054719105980794 1.4862189 5 9 0
103.25312698351074 27.056974304322807 1.4862189 5 9 0
103.2530920370771 27.059229501899896 1.4862189 5 9 0
103.25305708655276 27.061484698712018 1.4862189 5 9 0
103.25302213193736 27.06373989475915 1.4862189 5 9 0
103.25298717323055 27.06599509004121 1.4862189 5 9 0
103.25295221043196 27.068250284558157 1.4862189 5 9 0
103.25291724354126 27.070505478309983 1.4862189 5 9 0
103.25288227255811 27.072760671296596 1.4862189 5 9 0
103.25284729748212 27.075015863517987 1.4862189 5 9 0
103.25281231831299 27.07727105497406 1.4862189 5 9 0
103.25277733505034 27.079526245664816 1.4862189 5 9 0
103.25274234769378 27.08178143559019 1.4862189 5 9 0
103.25270735624301 27.08403662475013 0.85077584 5 9 0
103.25267236069766 27.086291813144594 0.85077584 5 9 0
103.25263736105738 27.088547000773538 0.85077584 5 9 0
103.25260235732179 27.090802187636914 0.85077584 5 9 0
103.25256734949059 27.093057373734673 0.85077584 5 9 0
103.25253233756341 27.095312559066766 0.85077584 5 9 0
103.25249732153986 27.097567743633164 0.85077584 5 9 0
103.25246230141961 27.099822927433802 0.85077584 5 9 0
103.25242727720232 27.102078110468636 0.85077584 5 9 0
103.25239224888762 27.104333292737614 0.85077584 5 9 0
103.25235721647519 27.106588474240713 0.85077584 5 9 0
103.25232217996462 27.10884365497786 0.85077584 5 9 0
103.2522871393556 27.111098834949022 0.85077584 5 9 0
103.25225209464777 27.11335401415415 0.85077584 5 9 0
103.25221704584078 27.115609192593194 0.85077584 5 9 0
103.25218199293425 27.117864370266116 0.85077584 5 9 0
103.25214693592784 27.12011954717285 0.85077584 5 9 0
103.25211187482122 27.122374723313385 0.85077584 5 9 0
103.25207680961401 27.12462989868764 0.85077584 5 9 0
103.25204174030587 27.12688507329558 3.4229147 5 9 0
103.25200666689643 27.12914024713716 3.4229147 5 9 0
103.25197158938535 27.13139542021234 3.4229147 5 9 0
103.25193650777229 27.133650592521043 3.4229147 5 9 0
103.25190142205686 27.135905764063274 3.4229147 5 9 0
103.25651695017069 27.00062530454109 3.0940723 5 9 0
103.25648215607187 27.00288052424847 3.0940723 5 9 0
103.25644735789699 27.005135743192177 3.0940723 5 9 0
103.25641255564571 27.00739096137215 3.0940723 5 9 0
103.25637774931769 27.009646178788348 3.0940723 5 9 0
103.25634293891255 27.011901395440745 3.0940723 5 9 0
103.25630812442999 27.01415661132927 3.0940723 5 9 0
103.2562733058696 27.016411826453886 3.0940723 5 9 0
103.25623848323107 27.018667040814535 3.0940723 5 9 0
103.25620365651405 27.02092225441119 3.0940723 5 9 0
103.25616882571815 27.02317746724379 3.0940723 5 9 0
103.25613399084307 27.0254326793123 3.0940723 5 9 0
103.25609915188844 27.027687890616654 3.0940723 5 9 0
103.25606430885388 27.029943101156835 3.0940723 5 9 0
103.25602946173909 27.032198310932763 3.0940723 5 9 0
103.2559946105437 27.034453519944407 3.0940723 5 9 0
103.25595975526731 27.03670872819173 3.0940723 5 9 0
103.25592489590966 27.038963935674662 3.0940723 5 9 0
103.25589003247033 27.04121914239317 3.0940723 5 9 0
103.255855164949 27.043474348347225 1.4862189 5 9 0
103.2558202933453 27.045729553536756 1.4862189 5 9 0
103.25578541765888 27.047984757961714 1.4862189 5 9 0
103.25575053788943 27.050239961622065 1.4862189 5 9 0
103.25571565403655 27.052495164517754 1.4862189 5 9 0
103.25568076609991 27.054750366648747 1.4862189 5 9 0
103.25564587407914 27.05700556801499 1.4862189 5 9 0
103.25561097797392 27.059260768616433 1.4862189 5 9 0
103.25557607778387 27.061515968453023 1.4862189 5 9 0
103.25554117350866 27.063771167524727 1.4862189 5 9 0
103.25550626514793 27.066026365831497 1.4862189 5 9 0
103.25547135270132 27.06828156337328 1.4862189 5 9 0
103.2554364361685 27.070536760150038 1.4862189 5 9 0
103.25540151554908 27.07279195616171 1.4862189 5 9 0
103.25536659084274 27.075047151408256 1.4862189 5 9 0
103.25533166204913 27.07730234588965 1.4862189 5 9 0
103.25529672916788 27.0795575396058 1.4862189 5 9 0
103.25526179219865 27.0818127325567 1.4862189 5 9 0
103.25522685114107 27.084067924742286 0.85077584 5 9 0
103.25519190599483 27.086323116162518 0.85077584 5 9 0
103.25515695675955 27.088578306817343 0.85077584 5 9 0
103.25512200343486 27.09083349670672 0.85077584 5 9 0
103.25508704602044 27.093088685830594 0.85077584 5 9 0
103.25505208451591 27.095343874188924 0.85077584 5 9 0
103.25501711892093 27.097599061781672 0.85077584 5 9 0
103.25498214923518 27.099854248608782 0.85077584 5 9 0
103.25494717545824 27.102109434670204 0.85077584 5 9 0
103.2549121975898 27.104364619965903 0.85077584 5 9 0
103.25487721562952 27.106619804495818 0.85077584 5 9 0
103.25484222957704 27.10887498825991 0.85077584 5 9 0
103.25480723943197 27.111130171258143 0.85077584 5 9 0
103.25477224519398 27.11338535349044 0.85077584 5 9 0
103.25473724686275 27.115640534956793 0.85077584 5 9 0
103.25470224443788 27.117895715657124 0.85077584 5 9 0
103.25466723791904 27.120150895591404 0.85077584 5 9 0
103.25463222730586 27.122406074759585 0.85077584 5 9 0
103.25459721259801 27.124661253161616 0.85077584 5 9 0
103.25456219379512 27.126916430797436 3.4229147 5 9 0
103.25452717089685 27.129171607667026 3.4229147 5 9 0
103.25449214390284 27.131426783770326 3.4229147 5 9 0
103.25445711281274 27.13368195910729 3.4229147 5 9 0
103.25442207762619 27.135937133677874 3.4229147 5 9 0
103.25903458851636 27.000656447705595 3.0940723 5 9 0
103.25899984459929 27.002911670430016 3.0940723 5 9 0
103.25896509661203 27.005166892390893 3.0940723 5 9 0
103.25893034455426 27.007422113588174 3.0940723 5 9 0
103.25889558842559 27.009677334021774 3.0940723 5 9 0
103.2588608282257 27.01193255369169 3.0940723 5 9 0
103.25882606395426 27.014187772597865 3.0940723 5 9 0
103.25879129561088 27.016442990740238 3.0940723 5 9 0
103.25875652319522 27.018698208118764 3.0940723 5 9 0
103.25872174670695 27.020953424733424 3.0940723 5 9 0
103.25868696614569 27.023208640584134 3.0940723 5 9 0
103.25865218151111 27.025463855670864 3.0940723 5 9 0
103.25861739280288 27.02771906999357 3.0940723 5 9 0
103.2585826000206 27.029974283552207 3.0940723 5 9 0
103.25854780316395 27.032229496346723 3.0940723 5 9 0
103.25851300223259 27.034484708377065 3.0940723 5 9 0
103.25847819722614 27.0367399196432 3.0940723 5 9 0
103.25844338814429 27.038995130145075 3.0940723 5 9 0
103.25840857498665 27.041250339882637 3.0940723 5 9 0
103.25837375775288 27.043505548855858 1.4862189 5 9 0
103.25833893644263 27.045760757064674 1.4862189 5 9 0
103.25830411105557 27.048015964509034 1.4862189 5 9 0
103.25826928159132 27.050271171188907 1.4862189 5 9 0
103.25823444804955 27.052526377104236 1.4862189 5 9 0
103.2581996104299 27.054781582254986 1.4862189 5 9 0
103.25816476873202 27.057036786641106 1.4862189 5 9 0
103.25812992295555 27.05929199026254 1.4862189 5 9 0
103.25809507310018 27.06154719311924 1.4862189 5 9 0
103.2580602191655 27.06380239521117 1.4862189 5 9 0
103.25802536115118 27.066057596538275 1.4862189 5 9 0
103.25799049905692 27.06831279710052 1.4862189 5 9 0
103.25795563288229 27.07056799689786 1.4862189 5 9 0
103.25792076262697 27.072823195930237 1.4862189 5 9 0
103.25788588829063 27.075078394197604 1.4862189 5 9 0
103.25785100987291 27.077333591699908 1.4862189 5 9 0
103.25781612737342 27.079588788437114 1.4862189 5 9 0
103.25778124079184 27.08184398440919 1.4862189 5 9 0
103.25774635012786 27.084099179616064 0.85077584 5 9 0
103.25771145538106 27.086354374057695 0.85077584 5 9 0
103.25767655655112 27.08860956773405 0.85077584 5 9 0
103.25764165363766 27.090864760645058 0.85077584 5 9 0
103.25760674664036 27.093119952790694 0.85077584 5 9 0
103.25757183555886 27.095375144170898 0.85077584 5 9 0
103.25753692039282 27.097630334785652 0.85077584 5 9 0
103.25750200114187 27.099885524634868 0.85077584 5 9 0
103.25746707780567 27.102140713718516 0.85077584 5 9 0
103.25743215038385 27.104395902036554 0.85077584 5 9 0
103.25739721887608 27.106651089588944 0.85077584 5 9 0
103.25736228328198 27.108906276375613 0.85077584 5 9 0
103.25732734360125 27.111161462396534 0.85077584 5 9 0
103.25729239983347 27.11341664765167 0.85077584 5 9 0
103.25725745197833 27.115671832140954 0.85077584 5 9 0
103.25722250003547 27.117927015864336 0.85077584 5 9 0
103.25718754400454 27.12018219882178 0.85077584 5 9 0
103.25715258388517 27.122437381013263 0.85077584 5 9 0
103.25711761967703 27.124692562438696 0.85077584 5 9 0
103.25708265137978 27.126947743098057 3.4229147 5 9 0
103.25704767899302 27.129202922991286 3.4229147 5 9 0
103.25701270251643 27.13145810211834 3.4229147 5 9 0
103.25697772194967 27.133713280479192 3.4229147 5 9 0
103.25694273729233 27.135968458073783 3.4229147 5 9 0
103.26155223093188 27.000687545912633 3.0940723 5 9 0
103.2615175371969 27.00294277164977 3.0940723 5 9 0
103.2614828393976 27.005197996623465 3.0940723 5 9 0
103.26144813753365 27.007453220833664 3.0940723 5 9 0
103.26141343160472 27.00970844428033 3.0940723 5 9 0
103.26137872161044 27.011963666963407 3.0940723 5 9 0
103.26134400755046 27.014218888882873 3.0940723 5 9 0
103.2613092894244 27.01647411003865 3.0940723 5 9 0
103.26127456723198 27.01872933043071 3.0940723 5 9 0
103.26123984097282 27.020984550058994 3.0940723 5 9 0
103.26120511064654 27.02323976892347 3.0940723 5 9 0
103.26117037625285 27.02549498702408 3.0940723 5 9 0
103.26113563779134 27.02775020436078 3.0940723 5 9 0
103.26110089526169 27.030005420933524 3.0940723 5 9 0
103.26106614866356 27.03226063674226 3.0940723 5 9 0
103.26103139799658 27.03451585178695 3.0940723 5 9 0
103.2609966432604 27.036771066067544 3.0940723 5 9 0
103.26096188445469 27.039026279583997 3.0940723 5 9 0
103.26092712157909 27.041281492336246 3.0940723 5 9 0
103.26089235463324 27.043536704324275 1.4862189 5 9 0
103.2608575836168 27.045791915548026 1.4862189 5 9 0
103.26082280852943 27.04804712600744 1.4862189 5 9 0
103.26078802937074 27.05030233570248 1.4862189 5 9 0
103.26075324614042 27.052557544633085 1.4862189 5 9 0
103.26071845883811 27.054812752799236 1.4862189 5 9 0
103.26068366746348 27.057067960200854 1.4862189 5 9 0
103.26064887201613 27.059323166837935 1.4862189 5 9 0
103.26061407249574 27.061578372710375 1.4862189 5 9 0
103.26057926890195 27.063833577818187 1.4862189 5 9 0
103.26054446123443 27.066088782161284 1.4862189 5 9 0
103.26050964949283 27.06834398573963 1.4862189 5 9 0
103.26047483367675 27.07059918855318 1.4862189 5 9 0
103.26044001378591 27.07285439060189 1.4862189 5 9 0
103.2604051898199 27.075109591885717 1.4862189 5 9 0
103.26037036177841 27.077364792404598 1.4862189 5 9 0
103.26033552966106 27.079619992158502 1.4862189 5 9 0
103.26030069346751 27.08187519114738 1.4862189 5 9 0
103.26026585319741 27.08413038937119 0.85077584 5 9 0
103.26023100885041 27.086385586829866 0.85077584 5 9 0
103.26019616042618 27.08864078352337 0.85077584 5 9 0
103.2601613079243 27.09089597945167 0.85077584 5 9 0
103.2601264513445 27.0931511746147 0.85077584 5 9 0
103.2600915906864 27.09540636901243 0.85077584 5 9 0
103.26005672594961 27.09766156264479 0.85077584 5 9 0
103.26002185713385 27.099916755511767 0.85077584 5 9 0
103.25998698423871 27.102171947613282 0.85077584 5 9 0
103.25995210726387 27.104427138949312 0.85077584 5 9 0
103.25991722620894 27.1066823295198 0.85077584 5 9 0
103.25988234107362 27.108937519324698 0.85077584 5 9 0
103.25984745185752 27.111192708363962 0.85077584 5 9 0
103.25981255856033 27.113447896637542 0.85077584 5 9 0
103.25977766118164 27.115703084145395 0.85077584 5 9 0
103.25974275972115 27.11795827088748 0.85077584 5 9 0
103.25970785417847 27.12021345686374 0.85077584 5 9 0
103.25967294455329 27.122468642074143 0.85077584 5 9 0
103.25963803084521 27.12472382651863 0.85077584 5 9 0
103.2596031130539 27.12697901019714 3.4229147 5 9 0
103.25956819117901 27.129234193109657 3.4229147 5 9 0
103.25953326522021 27.131489375256123 3.4229147 5 9 0
103.25949833517711 27.13374455663649 3.4229147 5 9 0
103.25946340104936 27.1359997372507 3.4229147 5 9 0
103.26406987741134 27.00071859916193 3.0940723 5 9 0
103.26403523385879 27.002973827907418 3.0940723 5 9 0
103.26400058624782 27.005229055889576 3.0940723 5 9 0
103.26396593457807 27.00748428310836 3.0940723 5 9 0
103.2639312788492 27.00973950956374 3.0940723 5 9 0
103.26389661906086 27.01199473525564 3.0940723 5 9 0
103.26386195521269 27.01424996018403 3.0940723 5 9 0
103.26382728730435 27.016505184348862 3.0940723 5 9 0
103.2637926153355 27.018760407750083 3.0940723 5 9 0
103.26375793930579 27.02101563038766 3.0940723 5 9 0
103.26372325921486 27.023270852261533 3.0940723 5 9 0
103.26368857506236 27.025526073371655 3.0940723 5 9 0
103.26365388684795 27.027781293717986 3.0940723 5 9 0
103.26361919457128 27.030036513300484 3.0940723 5 9 0
103.26358449823199 27.03229173211909 3.0940723 5 9 0
103.26354979782975 27.034546950173773 3.0940723 5 9 0
103.26351509336419 27.03680216746447 3.0940723 5 9 0
103.26348038483499 27.03905738399114 3.0940723 5 9 0
103.26344567224177 27.041312599753738 3.0940723 5 9 0
103.26341095558418 27.043567814752222 1.4862189 5 9 0
103.26337623486191 27.04582302898654 1.4862189 5 9 0
103.26334151007455 27.04807824245664 1.4862189 5 9 0
103.2633067812218 27.05033345516248 1.4862189 5 9 0
103.2632720483033 27.052588667104015 1.4862189 5 9 0
103.26323731131869 27.054843878281208 1.4862189 5 9 0
103.26320257026762 27.057099088693995 1.4862189 5 9 0
103.26316782514974 27.05935429834234 1.4862189 5 9 0
103.2631330759647 27.06160950722618 1.4862189 5 9 0
103.26309832271218 27.063864715345503 1.4862189 5 9 0
103.2630635653918 27.066119922700224 1.4862189 5 9 0
103.2630288040032 27.06837512929032 1.4862189 5 9 0
103.26299403854605 27.070630335115734 1.4862189 5 9 0
103.26295926901999 27.072885540176422 1.4862189 5 9 0
103.26292449542468 27.075140744472346 1.4862189 5 9 0
103.26288971775976 27.077395948003442 1.4862189 5 9 0
103.2628549360249 27.079651150769678 1.4862189 5 9 0
103.26282015021971 27.081906352771004 1.4862189 5 9 0
103.26278536034388 27.084161554007387 0.85077584 5 9 0
103.26275056639703 27.086416754478734 0.85077584 5 9 0
103.26271576837883 27.088671954185052 0.85077584 5 9 0
103.26268096628891 27.090927153126263 0.85077584 5 9 0
103.26264616012695 27.09318235130233 0.85077584 5 9 0
103.26261134989258 27.095437548713207 0.85077584 5 9 0
103.26257653558542 27.097692745358852 0.85077584 5 9 0
103.26254171720518 27.09994794123921 0.85077584 5 9 0
103.26250689475145 27.10220313635423 0.85077584 5 9 0
103.26247206822393 27.104458330703878 0.85077584 5 9 0
103.26243723762222 27.10671352428811 0.85077584 5 9 0
103.26240240294602 27.108968717106873 0.85077584 5 9 0
103.26236756419495 27.111223909160113 0.85077584 5 9 0
103.26233272136864 27.113479100447787 0.85077584 5 9 0
103.26229787446678 27.115734290969858 0.85077584 5 9 0
103.262263023489 27.117989480726266 0.85077584 5 9 0
103.26222816843493 27.12024466971698 0.85077584 5 9 0
103.26219330930425 27.12249985794195 0.85077584 5 9 0
103.2621584460966 27.124755045401113 0.85077584 5 9 0
103.26212357881161 27.127010232094428 3.4229147 5 9 0
103.26208870744895 27.129265418021873 3.4229147 5 9 0
103.26205383200826 27.131520603183365 3.4229147 5 9 0
103.26201895248919 27.133775787578884 3.4229147 5 9 0
103.2619840688914 27.136030971208374 3.4229147 5 9 0
103.2665875279489 27.000749607453237 3.0940723 5 9 0
103.26655293457914 27.003004839202717 3.0940723 5 9 0
103.26651833715682 27.00526007018899 3.0940723 5 9 0
103.2664837356816 27.007515300412006 3.0940723 5 9 0
103.26644913015315 27.009770529871716 3.0940723 5 9 0
103.2664145205711 27.01202575856808 3.0940723 5 9 0
103.2663799069351 27.014280986501053 3.0940723 5 9 0
103.26634528924482 27.016536213670577 3.0940723 5 9 0
103.2663106674999 27.018791440076615 3.0940723 5 9 0
103.26627604169997 27.021046665719112 3.0940723 5 9 0
103.26624141184473 27.02330189059804 3.0940723 5 9 0
103.26620677793379 27.025557114713322 3.0940723 5 9 0
103.26617213996683 27.027812338064944 3.0940723 5 9 0
103.26613749794348 27.030067560652835 3.0940723 5 9 0
103.2661028518634 27.03232278247696 3.0940723 5 9 0
103.26606820172624 27.034578003537263 3.0940723 5 9 0
103.26603354753165 27.036833223833707 3.0940723 5 9 0
103.26599888927929 27.03908844336625 3.0940723 5 9 0
103.2659642269688 27.041343662134828 3.0940723 5 9 0
103.26592956059983 27.04359888013941 1.4862189 5 9 0
103.26589489017206 27.04585409737993 1.4862189 5 9 0
103.26586021568511 27.048109313856372 1.4862189 5 9 0
103.26582553713862 27.050364529568668 1.4862189 5 9 0
103.26579085453228 27.05261974451677 1.4862189 5 9 0
103.26575616786572 27.054874958700648 1.4862189 5 9 0
103.26572147713857 27.05713017212023 1.4862189 5 9 0
103.26568678235051 27.059385384775492 1.4862189 5 9 0
103.2656520835012 27.061640596666376 1.4862189 5 9 0
103.26561738059026 27.063895807792846 1.4862189 5 9 0
103.26558267361735 27.06615101815484 1.4862189 5 9 0
103.26554796258213 27.068406227752316 1.4862189 5 9 0
103.26551324748424 27.070661436585223 1.4862189 5 9 0
103.26547852832333 27.072916644653542 1.4862189 5 9 0
103.26544380509907 27.075171851957204 1.4862189 5 9 0
103.26540907781109 27.077427058496163 1.4862189 5 9 0
103.26537434645904 27.079682264270364 1.4862189 5 9 0
103.26533961104258 27.081937469279772 1.4862189 5 9 0
103.26530487156134 27.08419267352435 0.85077584 5 9 0
103.265270128015 27.086447877004034 0.85077584 5 9 0
103.26523538040321 27.088703079718798 0.85077584 5 9 0
103.2652006287256 27.090958281668566 0.85077584 5 9 0
103.2651658729818 27.093213482853304 0.85077584 5 9 0
103.2651311131715 27.09546868327298 0.85077584 5 9 0
103.26509634929434 27.09772388292754 0.85077584 5 9 0
103.26506158134995 27.099979081816922 0.85077584 5 9 0
103.26502680933801 27.102234279941097 0.85077584 5 9 0
103.26499203325815 27.104489477300014 0.85077584 5 9 0
103.26495725311003 27.106744673893612 0.85077584 5 9 0
103.26492246889329 27.108999869721867 0.85077584 5 9 0
103.26488768060759 27.11125506478473 0.85077584 5 9 0
103.26485288825252 27.113510259082137 0.85077584 5 9 0
103.26481809182783 27.115765452614053 0.85077584 5 9 0
103.2647832913331 27.118020645380433 0.85077584 5 9 0
103.26474848676801 27.12027583738123 0.85077584 5 9 0
103.26471367813221 27.122531028616397 0.85077584 5 9 0
103.26467886542531 27.12478621908588 0.85077584 5 9 0
103.26464404864701 27.127041408789644 3.4229147 5 9 0
103.26460922779692 27.129296597727635 3.4229147 5 9 1
103.26457440287471 27.131551785899802 3.4229147 5 9 0
103.26453957388003 27.133806973306108 3.4229147 5 9 0
103.26450474081251 27.1360621599465 3.4229147 5 9 0
103.26910518253865 27.000780570786258 3.0940723 5 9 0
103.26907063935201 27.003035805535387 3.0940723 5 9 0
103.26903609211872 27.005291039521406 3.0940723 5 9 0
103.26900154083839 27.0075462727443 3.0940723 5 9 0
103.26896698551069 27.009801505204003 3.0940723 5 9 0
103.26893242613528 27.012056736900483 3.0940723 5 9 0
103.26889786271181 27.014311967833667 3.0940723 5 9 0
103.26886329523992 27.016567198003536 3.0940723 5 9 0
103.26882872371927 27.018822427410022 3.0940723 5 9 0
103.2687941481495 27.021077656053112 3.0940723 5 9 0
103.26875956853027 27.023332883932724 3.0940723 5 9 0
103.26872498486127 27.02558811104881 3.0940723 5 9 0
103.26869039714208 27.027843337401347 3.0940723 5 9 0
103.2686558053724 27.030098562990286 3.0940723 5 9 0
103.26862120955188 27.032353787815577 3.0940723 5 9 0
103.26858660968016 27.034609011877148 3.0940723 5 9 0
103.26855200575689 27.036864235174992 3.0940723 5 9 0
103.26851739778172 27.039119457709038 3.0940723 5 9 0
103.26848278575432 27.041374679479233 3.0940723 5 9 0
103.26844816967433 27.043629900485563 1.4862189 5 9 0
103.2684135495414 27.045885120727945 1.4862189 5 9 0
103.26837892535517 27.048140340206356 1.4862189 5 9 0
103.26834429711532 27.050395558920748 1.4862189 5 9 0
103.26830966482147 27.05265077687106 1.4862189 5 9 0
103.2682750284733 27.054905994057258 1.4862189 5 9 0
103.26824038807044 27.057161210479293 1.4862189 5 9 0
103.26820574361255 27.05941642613712 1.4862189 5 9 0
103.26817109509929 27.06167164103067 1.4862189 5 9 0
103.26813644253029 27.06392685515993 1.4862189 5 9 0
103.26810178590522 27.066182068524835 1.4862189 5 9 0
103.26806712522372 27.068437281125334 1.4862189 5 9 0
103.26803246048544 27.0706924929614 1.4862189 5 9 0
103.26799779169004 27.072947704032977 1.4862189 5 9 0
103.26796311883716 27.075202914340018 1.4862189 5 9 0
103.26792844192647 27.07745812388246 1.4862189 5 9 0
103.2678937609576 27.079713332660283 1.4862189 5 9 0
103.2678590759302 27.08196854067343 1.4862189 5 9 0
103.26782438684394 27.084223747921847 0.85077584 5 9 0
103.26778969369845 27.0864789544055 0.85077584 5 9 0
103.2677549964934 27.08873416012433 0.85077584 5 9 0
103.26772029522841 27.090989365078293 0.85077584 5 9 0
103.26768558990317 27.09324456926736 0.85077584 5 9 0
103.26765088051732 27.09549977269147 0.85077584 5 9 0
103.26761616707047 27.09775497535057 0.85077584 5 9 0
103.26758144956233 27.10001017724462 0.85077584 5 9 0
103.2675467279925 27.10226537837358 0.85077584 5 9 0
103.26751200236066 27.10452057873739 0.85077584 5 9 0
103.26747727266645 27.106775778336015 0.85077584 5 9 0
103.26744253890952 27.109030977169418 0.85077584 5 9 0
103.26740780108952 27.111286175237517 0.85077584 5 9 0
103.26737305920611 27.113541372540308 0.85077584 5 9 0
103.26733831325892 27.115796569077705 0.85077584 5 9 0
103.26730356324762 27.118051764849685 0.85077584 5 9 0
103.26726880917184 27.120306959856208 0.85077584 5 9 0
103.26723405103124 27.122562154097217 0.85077584 5 9 0
103.26719928882548 27.124817347572666 0.85077584 5 9 0
103.26716452255418 27.127072540282494 3.4229147 5 9 0
103.26712975221702 27.129327732226685 3.4229147 5 9 0
103.26709497781363 27.131582923405162 3.4229147 5 9 0
103.26706019934367 27.133838113817895 3.4229147 5 9 1
103.2670254168068 27.136093303464843 3.4229147 5 9 1
103.27162284117473 27.000811489160718 3.0940723 5 9 0
103.27158834817159 27.003066726905136 3.0940723 5 9 0
103.27155385112765 27.005321963886566 3.0940723 5 9 0
103.27151935004255 27.00757720010498 3.0940723 5 9 0
103.27148484491596 27.00983243556032 3.0940723 5 9 0
103.27145033574756 27.012087670252537 3.0940723 5 9 0
103.27141582253694 27.0143429041816 3.0940723 5 9 0
103.27138130528378 27.016598137347465 3.0940723 5 9 0
103.27134678398775 27.018853369750058 3.0940723 5 9 0
103.27131225864848 27.021108601389358 3.0940723 5 9 0
103.27127772926565 27.023363832265304 3.0940723 5 9 0
103.27124319583888 27.02561906237785 3.0940723 5 9 0
103.27120865836784 27.02787429172696 3.0940723 5 9 0
103.2711741168522 27.03012952031258 3.0940723 5 9 0
103.27113957129157 27.03238474813466 3.0940723 5 9 0
103.27110502168561 27.03463997519315 3.0940723 5 9 0
103.27107046803403 27.036895201488033 3.0940723 5 9 0
103.2710359103364 27.039150427019237 3.0940723 5 9 0
103.27100134859243 27.0414056517867 3.0940723 5 9 0
103.27096678280176 27.043660875790415 1.4862189 5 9 0
103.27093221296403 27.045916099030297 1.4862189 5 9 0
103.27089763907888 27.048171321506334 1.4862189 5 9 0
103.27086306114599 27.05042654321844 1.4862189 5 9 0
103.270828479165 27.052681764166618 1.4862189 5 9 0
103.27079389313558 27.054936984350782 1.4862189 5 9 0
103.27075930305735 27.05719220377089 1.4862189 5 9 0
103.27072470892998 27.059447422426928 1.4862189 5 9 0
103.27069011075312 27.0617026403188 1.4862189 5 9 0
103.27065550852642 27.06395785744649 1.4862189 5 9 0
103.27062090224952 27.066213073809944 1.4862189 5 9 0
103.27058629192209 27.068468289409118 1.4862189 5 9 0
103.27055167754378 27.070723504243965 1.4862189 5 9 0
103.27051705911421 27.072978718314445 1.4862189 5 9 0
103.2704824366331 27.075233931620506 1.4862189 5 9 0
103.27044781010002 27.077489144162087 1.4862189 5 9 0
103.27041317951469 27.079744355939155 1.4862189 5 9 0
103.2703785448767 27.081999566951676 1.4862189 5 9 0
103.27034390618574 27.084254777199583 0.85077584 5 9 0
103.27030926344146 27.086509986682845 0.85077584 5 9 0
103.27027461664352 27.088765195401386 0.85077584 5 9 0
103.27023996579153 27.091020403355202 0.85077584 5 9 0
103.27020531088517 27.093275610544218 0.85077584 5 9 0
103.27017065192408 27.09553081696839 0.85077584 5 9 0
103.27013598890794 27.097786022627687 0.85077584 5 9 0
103.27010132183635 27.10004122752204 0.85077584 5 9 0
103.270066650709 27.102296431651414 0.85077584 5 9 0
103.27003197552554 27.10455163501578 0.85077584 5 9 0
103.2699972962856 27.106806837615068 0.85077584 5 9 0
103.26996261298883 27.109062039449224 0.85077584 5 9 0
103.2699279256349 27.111317240518222 0.85077584 5 9 0
103.26989323422345 27.113572440822026 0.85077584 5 9 0
103.26985853875412 27.115827640360553 0.85077584 5 9 0
103.26982383922658 27.118082839133777 0.85077584 5 9 0
103.26978913564047 27.12033803714165 0.85077584 5 9 0
103.26975442799545 27.12259323438414 0.85077584 5 9 0
103.26971971629114 27.12484843086118 0.85077584 5 9 0
103.26968500052722 27.127103626572715 3.4229147 5 9 0
103.26965028070333 27.129358821518732 3.4229147 5 9 0
103.26961555681913 27.13161401569916 3.4229147 5 9 0
103.26958082887425 27.133869209113954 3.4229147 5 9 0
103.26954609686835 27.13612440176308 3.4229147 5 9 0
103.27414050385127 27.000842362576357 3.0940723 5 9 0
103.27410606103194 27.0030976033117 3.0940723 5 9 0
103.27407161417771 27.005352843284186 3.0940723 5 9 0
103.27403716328821 27.007608082493764 3.0940723 5 9 0
103.27400270836307 27.00986332094039 3.0940723 5 9 0
103.27396824940199 27.012118558624007 3.0940723 5 9 0
103.2739337864046 27.01437379554459 3.0940723 5 9 0
103.27389931937053 27.016629031702085 3.0940723 5 9 0
103.27386484829947 27.01888426709643 3.0940723 5 9 0
103.27383037319105 27.02113950172758 3.0940723 5 9 0
103.27379589404494 27.023394735595513 3.0940723 5 9 0
103.27376141086077 27.025649968700158 3.0940723 5 9 0
103.27372692363824 27.027905201041474 3.0940723 5 9 0
103.27369243237693 27.030160432619425 3.0940723 5 9 0
103.27365793707656 27.032415663433948 3.0940723 5 9 0
103.27362343773675 27.034670893485018 3.0940723 5 9 0
103.27358893435716 27.036926122772574 3.0940723 5 9 0
103.27355442693745 27.039181351296556 3.0940723 5 9 0
103.27351991547725 27.041436579056942 3.0940723 5 9 0
103.27348539997622 27.04369180605368 1.4862189 5 9 0
103.27345088043405 27.045947032286705 1.4862189 5 9 0
103.27341635685035 27.048202257756003 1.4862189 5 9 0
103.27338182922477 27.050457482461496 1.4862189 5 9 0
103.273347297557 27.052712706403163 1.4862189 5 9 0
103.27331276184665 27.05496792958094 1.4862189 5 9 0
103.2732782220934 27.057223151994773 1.4862189 5 9 0
103.2732436782969 27.05947837364464 1.4862189 5 9 0
103.27320913045678 27.061733594530473 1.4862189 5 9 0
103.27317457857272 27.06398881465226 1.4862189 5 9 0
103.27314002264436 27.06624403400991 1.4862189 5 9 0
103.27310546267135 27.06849925260338 1.4862189 5 9 0
103.27307089865334 27.070754470432657 1.4862189 5 9 0
103.27303633058999 27.073009687497674 1.4862189 5 9 0
103.27300175848096 27.07526490379841 1.4862189 5 9 0
103.27296718232587 27.07752011933476 1.4862189 5 9 0
103.2729326021244 27.07977533410672 1.4862189 5 9 0
103.27289801787619 27.082030548114258 1.4862189 5 9 0
103.2728634295809 27.08428576135729 0.85077584 5 9 0
103.27282883723817 27.086540973835785 0.85077584 5 9 0
103.27279424084765 27.088796185549697 0.85077584 5 9 0
103.27275964040902 27.09105139649899 0.85077584 5 9 0
103.2727250359219 27.093306606683594 0.85077584 5 9 0
103.27269042738592 27.095561816103487 0.85077584 5 9 0
103.27265581480081 27.0978170247586 0.85077584 5 9 0
103.27262119816615 27.100072232648902 0.85077584 5 9 0
103.27258657748163 27.102327439774346 0.85077584 5 9 0
103.27255195274687 27.10458264613488 0.85077584 5 9 0
103.27251732396157 27.10683785173046 0.85077584 5 9 0
103.2724826911253 27.109093056561033 0.85077584 5 9 0
103.2724480542378 27.11134826062656 0.85077584 5 9 0
103.27241341329864 27.11360346392701 0.85077584 5 9 0
103.27237876830753 27.115858666462294 0.85077584 5 9 0
103.2723441192641 27.11811386823241 0.85077584 5 9 0
103.27230946616802 27.12036906923728 0.85077584 5 9 0
103.27227480901891 27.122624269476873 0.85077584 5 9 0
103.27224014781642 27.124879468951143 0.85077584 5 9 0
103.27220548256024 27.12713466766004 3.4229147 5 9 0
103.27217081324997 27.129389865603514 3.4229147 5 9 0
103.2721361398853 27.13164506278153 3.4229147 5 9 0
103.27210146246586 27.13390025919402 3.4229147 5 9 0
103.2720667809913 27.13615545484097 3.4229147 5 9 0
103.27665817056237 27.00087319103289 3.0940723 5 9 0
103.27662377792724 27.00312843475482 3.0940723 5 9 0
103.27658938126305 27.005383677714008 3.0940723 5 9 0
103.27655498056947 27.007638919910395 3.0940723 5 9 0
103.27652057584615 27.009894161343937 3.0940723 5 9 0
103.27648616709274 27.012149402014604 3.0940723 5 9 0
103.27645175430891 27.014404641922354 3.0940723 5 9 0
103.27641733749428 27.01665988106712 3.0940723 5 9 0
103.27638291664853 27.018915119448852 3.0940723 5 9 0
103.27634849177132 27.02117035706752 3.0940723 5 9 0
103.27631406286227 27.023425593923076 3.0940723 5 9 0
103.27627962992106 27.025680830015464 3.0940723 5 9 0
103.27624519294736 27.027936065344626 3.0940723 5 9 0
103.27621075194077 27.030191299910545 3.0940723 5 9 0
103.27617630690101 27.032446533713177 3.0940723 5 9 0
103.27614185782767 27.03470176675245 3.0940723 5 9 0
103.27610740472045 27.03695699902832 3.0940723 5 9 0
103.27607294757897 27.03921223054075 3.0940723 5 9 0
103.2760384864029 27.041467461289688 3.0940723 5 9 0
103.27600402119188 27.04372269127509 1.4862189 5 9 0
103.2759695519456 27.045977920496913 1.4862189 5 9 0
103.27593507866368 27.048233148955106 1.4862189 5 9 0
103.27590060134578 27.05048837664962 1.4862189 5 9 1
103.27586611999155 27.052743603580417 1.4862189 5 9 0
103.27583163460064 27.054998829747447 1.4862189 5 9 0
103.27579714517272 27.057254055150658 1.4862189 5 9 0
103.27576265170742 27.05950927979001 1.4862189 5 9 0
103.2757281542044 27.061764503665447 1.4862189 5 9 0
103.27569365266334 27.064019726776944 1.4862189 5 9 0
103.27565914708384 27.066274949124423 1.4862189 5 9 0
103.2756246374656 27.068530170707852 1.4862189 5 9 0
103.27559012380824 27.0707853915272 1.4862189 5 9 0
103.27555560611145 27.0730406115824 1.4862189 5 9 0
103.27552108437484 27.075295830873426 1.4862189 5 9 0
103.2754865585981 27.077551049400203 1.4862189 5 9 0
103.27545202878085 27.079806267162706 1.4862189 5 9 0
103.27541749492275 27.082061484160874 1.4862189 5 9 0
103.27538295702347 27.084316700394677 0.85077584 5 9 0
103.27534841508265 27.086571915864063 0.85077584 5 9 0
103.27531386909993 27.088827130568983 0.85077584 5 9 0
103.27527931907497 27.09108234450938 0.85077584 5 9 0
103.27524476500744 27.09333755768522 0.85077584 5 9 0
103.27521020689697 27.09559277009646 0.85077584 5 9 0
103.27517564474321 27.097847981743044 0.85077584 5 9 0
103.27514107854584 27.100103192624932 0.85077584 5 9 0
103.27510650830448 27.10235840274207 0.85077584 5 9 0
103.2750719340188 27.104613612094422 0.85077584 5 9 0
103.27503735568844 27.10686882068194 0.85077584 5 9 0
103.27500277331305 27.109124028504564 0.85077584 5 9 0
103.2749681868923 27.11137923556226 0.85077584 5 9 0
103.27493359642583 27.113634441854984 0.85077584 5 9 0
103.27489900191328 27.115889647382676 0.85077584 5 9 0
103.27486440335431 27.118144852145303 0.85077584 5 9 0
103.27482980074859 27.120400056142813 0.85077584 5 9 0
103.27479519409574 27.122655259375165 0.85077584 5 9 0
