138.82926256613138 37.303058591126515 0.33906022 1 8 1
138.82886494218246 37.30354989386565 0.33906022 1 8 1
138.8290370130264 37.30418073858453 0.33906022 1 8 1
138.8286012336935 37.3046841815283 0.33906022 1 8 1
138.8286702225006 37.3051240581175 0.33906022 1 8 1
138.82910723917234 37.305463282352015 0.33906022 1 8 1
138.82946788692115 37.305881522155204 0.33906022 1 8 1
138.8300995992613 37.30220442786555 0.33906022 1 8 1
138.82959902690195 37.3082571522649 0.33906022 1 8 1
138.82982744430984 37.30874323948051 0.33906022 1 8 1
138.82931859300768 37.30887582687294 0.33906022 1 8 1
138.82986548945368 37.30977161962711 0.33906022 1 8 1
138.8305890345805 37.31202797109441 0.33906022 1 8 1
138.82828031718665 37.312448372206504 0.33906022 1 8 1
138.82807355402838 37.31182801319024 0.33906022 1 8 1
138.82819900216913 37.31124026182499 0.33906022 1 8 1
138.82818275471874 37.31084651303603 0.33906022 1 8 1
138.82903026872995 37.3128254574451 0.33906022 1 8 1
138.82821144908576 37.31000550060026 0.33906022 1 8 1
138.8285440784567 37.30942202514522 0.33906022 1 8 1
138.82770683826743 37.315721394232895 0.33906022 1 8 1
138.82793889785393 37.31463027311162 0.33906022 1 8 1
138.82863075078265 37.31431381479087 0.33906022 1 8 1
138.83361464188872 37.29552616076671 1.1236027 1 10 1
138.83601051467693 37.294804113035106 1.1236027 1 10 1
138.83569143575954 37.29401961702509 1.1236027 1 10 1
138.83443505576102 37.29261515200862 1.1236027 1 10 1
138.8315277859869 37.293717936757815 0.33906022 1 10 1
138.83640314959285 37.288559172071054 0.22985034 1 10 1
138.8356362553924 37.28916142869167 0.22985034 1 10 1
138.83473129360945 37.28932195289344 0.22985034 1 10 1
138.83494978323398 37.28963736400804 0.22985034 1 10 1
138.8380873687212 37.28673347400671 0.22985034 1 10 1
138.83801174598113 37.287320585080934 0.22985034 1 10 1
138.838490926552 37.28735485501345 0.22985034 1 10 1
138.83713028578416 37.287668320519145 0.22985034 1 10 1
138.83729682929362 37.28796905825938 0.22985034 1 10 1
138.83884048338965 37.28623470218928 0.22985034 1 10 1
138.8391275098901 37.28538341599665 0.22985034 1 10 1
138.84024046704596 37.286384436904626 0.22985034 1 10 1
138.8411857191292 37.28521249438606 0.22985034 1 10 1
138.83935220771798 37.283900079451136 0.22985034 1 10 1
138.83973949353853 37.28336979473004 0.22985034 1 10 1
138.84022595994963 37.28305385619924 0.22985034 1 10 1
138.83449312370664 37.28300761473332 0.22985034 1 10 1
138.83382645245513 37.2831085489527 0.22985034 1 10 1
138.83306632402034 37.28300175455333 0.41979212 1 10 1
138.83219421506215 37.283458121689875 0.41979212 1 10 1
138.83535153736617 37.28990252005098 0.22985034 1 10 1
138.83458934288083 37.29029016321332 0.22985034 1 10 1
138.8344520284231 37.289877575396524 0.22985034 1 10 1
138.83339081999637 37.290008062585606 0.22985034 1 10 1
138.83335613820978 37.291073596164786 0.22985034 1 10 1
138.8313692496077 37.29134350077042 0.41979212 1 10 1
138.83221358224725 37.29083534255154 0.41979212 1 10 1
138.83056025065068 37.292070047446515 0.33906022 1 10 1
138.83049873386202 37.291217042228276 0.41979212 1 10 1
138.8285630344402 37.29176441647762 0.33906022 1 10 1
138.82625816080366 37.29354862362514 0.33906022 1 10 1
138.82993228196912 37.28339212270054 0.41979212 1 10 1
138.828522764743 37.28215434244296 0.41979212 1 10 1
138.8278013490541 37.28206580726234 0.41979212 1 10 1
138.82817228757713 37.281192292828784 0.41979212 1 10 1
138.82734374198338 37.27892404410183 0.41979212 1 10 1
138.82644061122758 37.2788122328901 0.41979212 1 10 1
138.82769938974656 37.27779394531526 0.41979212 1 10 1
138.82750746877468 37.27701134320373 0.41979212 1 10 1
138.82766615660242 37.27630787227776 0.41979212 1 10 1
138.8270238288765 37.2760891779747 0.41979212 1 10 1
138.8268554178143 37.275229483721 0.41979212 1 10 1
138.82910445681998 37.27419328158677 0.41979212 1 10 1
138.83060306976418 37.27518704280228 0.41979212 1 10 1
138.83241521083866 37.27375794172478 0.41979212 1 10 1
138.83012277912215 37.272274953183064 0.41979212 1 10 1
138.82657680079285 37.270140986150146 0.41979212 1 10 1
138.82581514584982 37.269706180087404 0.41979212 1 10 1
138.82879588019435 37.26969608474217 0.41979212 1 10 1
138.82943742386922 37.26923102276807 0.41979212 1 10 1
138.83014743439932 37.268925174442415 0.41979212 1 10 1
138.83073847221385 37.26949980185529 0.41979212 1 10 1
138.82748501904322 37.27070200285144 0.41979212 1 10 1
138.8277887894259 37.270966662128416 0.41979212 1 10 1
138.82430621868005 37.26994539738609 0.41979212 1 10 1
138.83349755802354 37.266899245747446 0.22985034 1 10 1
138.83476384351766 37.26538934503301 0.22985034 1 10 1
138.835321409782 37.26533816856251 0.22985034 1 10 1
138.84085644646274 37.26407830576704 0.22985034 1 10 1
138.84185991404598 37.26448389733305 0.22985034 1 10 1
138.8406013111976 37.25347375564728 0.22985034 1 10 1
138.82466329986394 37.25458540861742 0.41979212 1 10 1
138.81567346891467 37.26741917988793 0.41979212 1 10 1
138.81721943840571 37.26626356329134 0.41979212 1 10 1
138.81573291425644 37.26429289254575 0.41979212 1 10 1
138.8168884391342 37.26576938334655 0.41979212 1 10 1
138.81603215058166 37.26982934816198 0.41979212 1 10 1
138.8115942184721 37.27188373552669 0.41979212 1 10 1
138.81093848099152 37.271583645797996 0.41979212 1 10 1
138.81002636184445 37.27109926750162 0.41979212 1 10 1
138.80996605493482 37.27075910157459 0.41979212 1 10 1
138.80943744868307 37.26960688224909 0.41979212 1 10 1
138.81301645145334 37.27651951271621 0.41979212 1 10 1
138.81173466689773 37.275118871771696 0.41979212 1 10 1
138.81768528367115 37.28461753964237 0.41979212 1 10 1
138.81755829737932 37.28581635880455 0.41979212 1 10 1
138.81812241251652 37.28543052257191 0.41979212 1 10 1
138.81655533878993 37.28466385390805 0.41979212 1 10 1
138.8184812990518 37.28976669525887 0.41979212 1 10 1
138.8245081418428 37.29272983506027 0.33906022 1 10 1
138.823495364994 37.29260815011597 0.33906022 1 10 1
138.7943121327796 37.28435258248379 0.41979212 1 10 1
138.79259003570488 37.283310764521225 0.41979212 1 10 1
138.7985122774128 37.2759470387308 0.41979212 1 10 1
138.79425475761624 37.27676764072669 0.41979212 1 10 1
138.79347447531038 37.27777709386854 0.41979212 1 10 1
138.7913501298431 37.27587433403875 0.49251425 1 10 1
138.79137162933412 37.27472812239823 0.49251425 1 10 1
138.7903870577555 37.300309623146426 0.6311824 1 10 1
138.8011357947769 37.28790028550813 0.41979212 1 10 1
138.8069903519244 37.29355811560206 0.33906022 1 10 1
138.80816965733473 37.29300653757074 0.33906022 1 10 1
138.80874613295907 37.29353564086248 0.33906022 1 10 1
138.80889996932518 37.29270902029483 0.33906022 1 10 1
138.80983472362877 37.292533620878686 0.33906022 1 10 1
138.81051139219178 37.29228640098136 0.33906022 1 10 1
138.80254673320994 37.297172067437636 0.33906022 1 10 1
138.80175002873222 37.29862022246096 0.33906022 1 10 1
138.80071237827482 37.30117593397934 0.33906022 1 8 1
138.8004737023165 37.302949590641816 0.33906022 1 8 1
138.8005785341339 37.304395189300465 0.33906022 1 8 1
138.80070829381185 37.3062917934334 0.33906022 1 8 1
138.81086123990488 37.31376623125339 0.33906022 1 8 1
138.81139801981897 37.31430649768796 0.33906022 1 8 1
138.81089159424235 37.314456379078734 0.33906022 1 8 1
138.81521464944197 37.31265319482319 0.33906022 1 8 1
138.8170481730652 37.31314846819117 0.33906022 1 8 1
138.82102789150468 37.31405627454927 0.33906022 1 8 1
138.82044946923043 37.3137123379137 0.33906022 1 8 1
138.8235267283762 37.3132545200053 0.33906022 1 8 1
138.8211449448751 37.31213491585056 0.33906022 1 8 1
138.82067337975604 37.31192573631785 0.33906022 1 8 1
138.81958902643285 37.31171623658137 0.33906022 1 8 1
138.81885075166886 37.31244184645318 0.33906022 1 8 1
138.81968504642785 37.313248435259275 0.33906022 1 8 1
138.81953574985326 37.31304662079286 0.33906022 1 8 1
138.81986744704798 37.31133467016623 0.33906022 1 8 1
138.8202201422146 37.31135437312903 0.33906022 1 8 1
138.82094236124053 37.31104755915565 0.33906022 1 8 1
138.82115293218448 37.31056751028161 0.33906022 1 8 1
138.82158474172758 37.31091993441727 0.33906022 1 8 1
138.82290066309602 37.3102832308657 0.33906022 1 8 1
138.82318612394192 37.309108721520616 0.33906022 1 8 1
138.82470109731142 37.309285065624636 0.33906022 1 8 1
138.8220885935351 37.30707979301436 0.33906022 1 8 1
138.8226631315987 37.30755963457064 0.33906022 1 8 1
138.8218293335104 37.30621676827192 0.33906022 1 8 1
138.82539155908503 37.30365019834378 0.33906022 1 8 1
138.82744447517013 37.33543870451252 0.68230003 1 8 1
138.8284775869491 37.33536987219161 0.68230003 1 8 1
138.82812625095082 37.33244324748634 0.33906022 1 8 1
138.82595347116424 37.33007094378002 0.33906022 1 8 1
138.8269371795206 37.32980218520251 0.33906022 1 8 1
138.83244325455425 37.33603027858636 0.68230003 1 8 1
138.8321664821698 37.335336662862396 0.68230003 1 8 1
138.8364916053677 37.334859351307 1.703832 1 8 1
138.83865957413278 37.33440722966087 1.703832 1 8 1
138.83690485514487 37.33447130106679 1.703832 1 8 1
138.83788552686644 37.334300877777885 1.703832 1 8 1
138.83825943349638 37.33402301581393 1.703832 1 8 1
138.8367433238423 37.272808189191046 0.22985034 1 10 1
138.8375032491789 37.27254600068497 0.22985034 1 10 1
138.83784084416783 37.27235586821872 0.22985034 1 10 1
138.83838786523378 37.272321562120936 0.22985034 1 10 1
138.83918870775415 37.272171994895636 0.22985034 1 10 1
138.84185159199666 37.27686907659165 0.22985034 1 10 1
138.84310388828516 37.27744644606764 0.22985034 1 10 1
138.83570183217597 37.291394228281455 0.22985034 1 10 1
138.83614228301658 37.29162479723321 0.22985034 1 10 1
138.83558450742382 37.29069426718087 0.22985034 1 10 1
138.8349067704115 37.30923591020847 1.1236027 1 8 1
138.83538337413813 37.309027862477514 1.1236027 1 8 1
138.86653727871447 37.296364512367965 1.1236027 1 10 1
138.8670210372484 37.29700371868336 1.1236027 1 10 1
138.86745781871326 37.29640699084532 1.1236027 1 10 0
138.78939097211241 37.26961040032225 0.49251425 1 10 1
138.822604830442 37.2688700789201 0.41979212 1 10 1
138.82163895535174 37.2676421763439 0.41979212 1 10 1
138.85036347890104 37.31374842348419 1.1236027 1 8 1
138.85127930212522 37.31313654062165 1.1236027 1 8 1
138.86896696269986 37.3366589136989 1.703832 1 8 1
138.86799179380262 37.33845712959192 1.703832 1 8 1
138.86910622036697 37.33920616848781 1.703832 1 8 1
138.86653297625304 37.33967477358092 1.703832 1 8 1
138.86506648252058 37.34014435121382 1.703832 1 8 1
138.86730720495646 37.34091405308319 1.703832 1 8 1
138.86951686450718 37.34218250561951 1.703832 1 8 1
138.8670305327495 37.33924676570959 1.703832 1 8 1
138.86640847267813 37.33857616597574 1.703832 1 8 1
138.865661247583 37.33775100398192 1.703832 1 8 1
138.86596428884087 37.339908914172355 1.703832 1 8 1
138.86570177923363 37.34072305344246 1.703832 1 8 1
138.8628682399349 37.338609734371786 1.703832 1 8 1
138.86113708940624 37.337896963090635 1.703832 1 8 1
138.86411223896854 37.33889630732896 1.703832 1 8 1
138.86388564748185 37.339568118002205 1.703832 1 8 1
138.86651176894773 37.340669629298425 1.703832 1 8 1
138.86817147373895 37.34086952834339 1.703832 1 8 1
138.86742233824714 37.34175312831718 1.703832 1 8 1
138.8712948799521 37.34059598327637 1.703832 1 8 1
138.87145499113848 37.3420458333154 1.703832 1 8 1
138.8705391220042 37.34263636545114 1.703832 1 8 1
138.86701115434357 37.345584946567946 1.703832 1 8 1
138.86768320477404 37.34507631297154 1.703832 1 8 1
138.8624936482905 37.34705168242584 1.703832 1 8 1
138.86244875102102 37.34631652314667 1.703832 1 8 1
138.86324810436213 37.34679787414845 1.703832 1 8 1
138.8632082691665 37.34743148685499 1.703832 1 8 1
138.8627066506586 37.347777590314536 1.703832 1 8 1
138.86091369432935 37.34596622506145 1.703832 1 8 1
138.86018346080198 37.34536987774419 1.703832 1 8 1
138.85633157374477 37.34541625344165 1.703832 1 8 1
138.86447092652617 37.3465439979102 1.703832 1 8 1
138.86521214375438 37.34634000810141 1.703832 1 8 0
138.85867487086873 37.348477223883286 1.703832 1 8 1
138.8592637662657 37.34754297552694 1.703832 1 8 1
138.8604648337228 37.34717603816885 1.703832 1 8 1
138.86734477106614 37.349077782268175 1.703832 1 8 1
138.86508869965226 37.348529740597435 1.703832 1 8 1
138.86248574072033 37.35008776361586 1.703832 1 8 1
138.86305970209918 37.349585048160684 1.703832 1 8 1
138.86534006955944 37.350744824959186 1.703832 1 8 1
138.86505891476702 37.34944097916719 1.703832 1 8 1
138.86428169428433 37.349839916336 1.703832 1 8 1
138.86724668788924 37.350409368210364 1.703832 1 8 1
138.86823937033725 37.35024591126813 1.703832 1 8 1
138.86127294849464 37.34990325701865 1.703832 1 8 1
138.86205962766297 37.348966878942576 1.703832 1 8 1
138.86505434568835 37.350267522289634 1.703832 1 8 1
138.86614713547615 37.35033419638512 1.703832 1 8 1
138.86598081593718 37.35063297303048 1.703832 1 8 1
138.8554850897544 37.34240584326388 1.703832 1 8 1
138.85896504074321 37.34551902422201 1.703832 1 8 1
138.85895964038497 37.3437047680412 1.703832 1 8 0
138.86134498601115 37.34521537633211 1.703832 1 8 1
138.85580654021854 37.343883249660806 1.703832 1 8 1
138.85457551576528 37.34271271987421 1.703832 1 8 1
138.85418658675974 37.34179835239417 1.703832 1 8 1
138.85339578326992 37.34125188260848 1.703832 1 8 1
138.8521339021118 37.33970175357476 1.703832 1 8 1
138.8516543821325 37.34015314424072 1.703832 1 8 1
138.85231230538844 37.3450855401273 1.703832 1 8 1
138.85364580064308 37.340439436950774 1.703832 1 8 1
138.85433685926014 37.34073940881694 1.703832 1 8 1
138.85254121187725 37.340935680168144 1.703832 1 8 1
138.84963565002423 37.339993528398466 1.703832 1 8 1
138.85318712335962 37.33819825890422 1.703832 1 8 1
138.8511901838885 37.33927558201716 1.703832 1 8 1
138.84913859763705 37.3391201357249 1.703832 1 8 1
138.8484397790691 37.33836877334452 1.703832 1 8 1
138.84835749482042 37.33768417977101 1.703832 1 8 1
138.8489013774111 37.340701801192516 1.703832 1 8 1
138.84925312326234 37.33826385435961 1.703832 1 8 1
138.84979316329432 37.33853451008243 1.703832 1 8 1
138.84904958029531 37.33695164614796 1.703832 1 8 1
138.84679546779773 37.338039045299475 1.703832 1 8 1
138.84639470975603 37.33829451922701 1.703832 1 8 1
138.84796909093495 37.33691564045267 1.703832 1 8 1
138.84741481269145 37.33660997573292 1.703832 1 8 1
138.8499122094615 37.3372534971127 1.703832 1 8 1
138.8504019652888 37.33818179507329 1.703832 1 8 1
138.85084053787662 37.338760835473785 1.703832 1 8 1
138.8582452609152 37.33651519809029 1.703832 1 8 1
138.8600335181107 37.336918978594646 1.703832 1 8 1
138.86184810911104 37.34412407551079 1.703832 1 8 1
138.86395046595916 37.34423060823885 1.703832 1 8 0
138.86547771064255 37.345351547591754 1.703832 1 8 1
138.86779590963516 37.349631989809865 1.703832 1 8 1
138.86831745824173 37.34955539730388 1.703832 1 8 1
138.86016152659292 37.353218795883045 1.703832 1 8 1
138.86135072433885 37.35403725403139 1.703832 1 8 1
138.862246698942 37.354334119645124 1.703832 1 8 1
138.86136190422351 37.3529450767622 1.703832 1 8 1
138.86335595727934 37.35380355584854 1.703832 1 8 1
138.86402647897054 37.352944203734985 1.703832 1 8 1
138.8654915923402 37.35140103553224 1.703832 1 8 1
138.86285829331723 37.351695523694204 1.703832 1 8 0
138.86504123686976 37.35153077180771 1.703832 1 8 1
138.84255570228734 37.339061430989666 1.703832 1 8 1
138.84330886845945 37.3390144220093 1.703832 1 8 1
138.84364862724178 37.33738722509576 1.703832 1 8 1
138.84739115638274 37.33755027104696 1.703832 1 8 1
138.84617303894743 37.34067294484862 1.703832 1 8 1
138.84571243829794 37.33871456708913 1.703832 1 8 1
138.84578112717733 37.337838076912774 1.703832 1 8 1
138.84625877175185 37.33727263857961 1.703832 1 8 1
138.85531159241393 37.34928275177144 1.703832 1 8 1
138.85536132411414 37.347656854294776 1.703832 1 8 1
138.85651519874307 37.35142930445481 1.703832 1 8 1
138.85589910462164 37.35152766847537 1.703832 1 8 1
138.85487333115424 37.35152114734319 1.703832 1 8 1
138.8553500753745 37.351550090029754 1.703832 1 8 1
138.85653669099733 37.35377254157555 1.703832 1 8 1
138.85520455848155 37.356440616454975 1.703832 1 8 1
138.85725743444343 37.35656517830418 1.703832 1 8 1
138.85803426795633 37.35644487822522 1.703832 1 8 1
138.85885816848332 37.35636307247677 1.703832 1 8 1
138.8599886153714 37.35569440533596 1.703832 1 8 1
138.8605208140504 37.356880109170994 1.703832 1 8 1
138.8600116857714 37.35718269333081 1.703832 1 8 1
138.8577427234008 37.35571830837838 1.703832 1 8 1
138.85763482072622 37.355261916823785 1.703832 1 8 1
138.8592465020275 37.35446734405793 1.703832 1 8 1
138.85846627913872 37.35538665616115 1.703832 1 8 1
138.85929613232207 37.35497219417769 1.703832 1 8 1
138.86191148197588 37.3523852437657 1.703832 1 8 1
138.86237717885527 37.35192193920409 1.703832 1 8 1
138.87095650633577 37.355508223591094 1.703832 1 8 1
138.86631251039643 37.35167546423832 1.703832 1 8 1
138.86518106898808 37.36121018452265 1.703832 1 8 1
138.86795887905834 37.358405873597995 1.703832 1 8 1
138.86706456965135 37.3590658097058 1.703832 1 8 1
138.866603553606 37.35837887312398 1.703832 1 8 1
138.86597283350426 37.357959594678 1.703832 1 8 1
138.86087362464508 37.3575445095683 1.703832 1 8 1
138.8606319065411 37.35954313067783 1.703832 1 8 1
138.86469532607413 37.36309478573936 1.703832 1 8 1
138.85800488911227 37.35846728163566 1.703832 1 8 1
138.8591203114737 37.35887833020788 1.703832 1 8 1
138.8599649487692 37.359118569578555 1.703832 1 8 1
138.8548949717521 37.35785836902484 1.703832 1 8 1
138.85524081783845 37.358234426993754 1.703832 1 8 1
138.85559502307348 37.35646376179452 1.703832 1 8 1
138.8560429433116 37.356167657385875 1.703832 1 8 1
138.85158958102255 37.360340216822884 1.703832 1 8 1
138.85116610902995 37.36080220685177 1.703832 1 8 1
138.8537051612205 37.35758158140617 1.703832 1 8 1
138.8544155626671 37.35783076727398 1.703832 1 8 1
138.85625686792085 37.35705289051273 1.703832 1 8 1
138.85697384234658 37.35726123322752 1.703832 1 8 1
138.8566850018788 37.35622357094292 1.703832 1 8 1
138.8525703564651 37.36411911764924 1.703832 1 8 1
138.8550967467586 37.36327957471878 1.703832 1 8 1
138.85364485048402 37.362367499787794 1.703832 1 8 1
138.8590187690465 37.362265202953644 1.703832 1 8 1
138.85667439154088 37.36197923540845 1.703832 1 8 1
138.85624821516856 37.36250601174012 1.703832 1 8 1
138.85521443179866 37.36293391392251 1.703832 1 8 1
138.84881898000054 37.36515693615071 1.703832 1 12 1
138.8475332928762 37.365287246138514 1.703832 1 12 1
138.8479860746612 37.36483318297126 1.703832 1 12 1
138.84691283857728 37.36482974139286 1.703832 1 12 1
138.85057320208352 37.36291819827182 1.703832 1 8 1
138.84973273163203 37.36251642242212 1.703832 1 12 1
138.85006534123713 37.3619550503645 1.703832 1 8 1
138.85046164688362 37.36067342675495 1.703832 1 8 1
138.85688356231108 37.36878614073029 1.703832 1 8 1
138.86272840212413 37.365135228581295 1.703832 1 8 1
138.8605547842391 37.36451430132396 1.703832 1 8 1
138.86169885126998 37.36589748824634 1.703832 1 8 1
138.85725867659067 37.3713865413131 1.703832 1 8 1
138.86400583344368 37.37378504601499 1.703832 1 8 1
138.86336374119475 37.3786704257346 1.8281809 1 8 1
138.86737862945103 37.38141431215596 1.8281809 1 8 1
138.86944986931857 37.3815047512748 1.8281809 1 8 1
138.8714030847201 37.38116719857396 1.8281809 1 8 1
138.8712128103578 37.38174702110557 1.8281809 1 8 1
138.86947818743982 37.37928045136522 1.8281809 1 8 1
138.86504844634095 37.379657205768154 1.8281809 1 8 1
138.86616545758093 37.3802286873517 1.8281809 1 8 1
138.8667972290917 37.380264288455805 1.8281809 1 8 1
138.86760767199993 37.38041722423532 1.8281809 1 8 1
138.86842340830222 37.38073028677111 1.8281809 1 8 1
138.87028610524285 37.38126926854553 1.8281809 1 8 1
138.8706558336705 37.38149272964551 1.8281809 1 8 1
138.86687241306294 37.38670026032871 1.8281809 1 8 1
138.8645544531947 37.38901310602017 1.8281809 1 8 1
138.8632058951552 37.386785069772614 1.8281809 1 8 1
138.86081407853305 37.39417511805033 1.8281809 1 8 1
138.86848990874947 37.397726013751495 1.8281809 1 8 1
138.85903230500094 37.38317233486427 1.8281809 1 8 1
138.8516011771596 37.375324790022646 1.8281809 1 8 1
138.85053759036956 37.3750374464668 1.8281809 1 8 1
138.84467008551235 37.37232114263102 1.703832 1 12 1
138.8476200855995 37.36992702633183 1.703832 1 12 1
138.8481833759828 37.37012870928949 1.703832 1 12 1
138.84297660420197 37.360994206409934 1.703832 1 12 1
138.8438997743782 37.360284865379576 1.703832 1 12 1
138.84201420032957 37.35730801282227 1.703832 1 12 1
138.8426292336964 37.35738869634417 1.703832 1 12 1
138.84005510653967 37.35722708624384 1.703832 1 12 1
138.83663504988166 37.35414427437612 1.703832 1 12 1
138.84084072443602 37.35271190205607 1.703832 1 12 1
138.83578556742418 37.35153002084581 1.703832 1 12 1
138.83758071731896 37.35115000147649 1.703832 1 12 1
138.83923799136997 37.35168107258904 1.703832 1 12 1
138.84156334286422 37.35077449512064 1.703832 1 12 1
138.8414724361049 37.34835419211927 1.703832 1 8 1
138.84254141259171 37.348934092418716 1.703832 1 8 1
138.8439334474539 37.349385851229506 1.703832 1 8 1
138.84387522787557 37.34754112734815 1.703832 1 8 1
138.84627349941377 37.348279381431645 1.703832 1 8 1
138.84681901662537 37.3504322215791 1.703832 1 12 1
138.84745046461646 37.35048055666767 1.703832 1 12 1
138.84532550864202 37.35105640473114 1.703832 1 12 1
138.84579049100256 37.351258144725236 1.703832 1 12 1
138.84630891798014 37.35153228244762 1.703832 1 12 1
138.84249254957115 37.34994846913735 1.703832 1 8 1
138.84186892588585 37.346794894306974 1.703832 1 8 1
138.8353392066837 37.34475041309729 1.703832 1 8 1
138.83679086521343 37.34736851553394 1.703832 1 8 1
138.83720730698062 37.347648680592414 1.703832 1 8 1
138.8393002522079 37.3461068933891 1.703832 1 8 1
138.84038164201982 37.346385571485065 1.703832 1 8 1
138.83629504697987 37.34386844803573 1.703832 1 8 1
138.83683388369602 37.34391917712341 1.703832 1 8 1
138.8390714877493 37.344218017990926 1.703832 1 8 1
138.8406127703245 37.34371011187903 1.703832 1 8 1
138.84133917446337 37.34282290493126 1.703832 1 8 0
138.83420711471183 37.342534033277595 1.703832 1 8 1
138.84520257107607 37.34380188812991 1.703832 1 8 1
138.84553026140554 37.34358921618838 1.703832 1 8 1
138.84564524991907 37.349749313614765 1.703832 1 8 1
138.84601963971932 37.35088506998522 1.703832 1 12 1
138.85007601053437 37.35020000293925 1.703832 1 8 1
138.85140204496537 37.35066382496988 1.703832 1 8 1
138.85094420745605 37.350062046775236 1.703832 1 8 1
138.8509437341433 37.34795448948539 1.703832 1 8 1
138.8486885025553 37.34808728167342 1.703832 1 8 1
138.84981205758123 37.347815636174936 1.703832 1 8 1
138.85200715291862 37.34796744099842 1.703832 1 8 1
138.85237825939421 37.34850865372027 1.703832 1 8 1
138.82959599869497 37.343174318407776 0.68230003 1 8 1
138.83271961448577 37.342919912259156 0.68230003 1 8 1
138.83336419534578 37.34298166195746 1.703832 1 8 1
138.8306735967755 37.34072176276519 0.68230003 1 8 1
138.82832914191656 37.34022047206807 0.68230003 1 8 1
138.82891674534253 37.340139532100395 0.68230003 1 8 1
138.83141279153884 37.33998447855487 0.68230003 1 8 1
138.8311855759118 37.34240856423953 0.68230003 1 8 1
138.8312037755918 37.342744110386704 0.68230003 1 8 1
138.82755729428487 37.33750905143939 0.68230003 1 8 1
138.83183003782443 37.33650812276082 0.68230003 1 8 1
138.869192077527 37.37550838540193 1.8281809 1 8 1
138.8687680638425 37.37512406844372 1.8281809 1 8 1
138.86892511726586 37.37404824566995 1.703832 1 8 1
138.8695812709368 37.373365464166675 1.703832 1 8 1
138.86895086477247 37.37278341146762 1.703832 1 8 1
138.8716330719879 37.37129787690827 1.703832 1 8 1
138.87119619108884 37.37056818178852 1.703832 1 8 1
138.86777679275613 37.369663837691675 1.703832 1 8 1
138.86923923761202 37.36890531822702 1.703832 1 8 1
138.86946496781184 37.36967454384083 1.703832 1 8 1
138.86948972268706 37.36994603891121 1.703832 1 8 1
138.8665238983381 37.370985325354056 1.703832 1 8 1
138.86784729263576 37.369040038819094 1.703832 1 8 1
138.87029924338026 37.36746223692774 1.703832 1 8 1
138.86880954101298 37.36751183294989 1.703832 1 8 1
138.8688685983472 37.367966909254314 1.703832 1 8 1
138.87164739907166 37.36678469525695 1.703832 1 8 1
138.8673704912131 37.36520873292274 1.703832 1 8 1
138.87134211280025 37.36736608687684 1.703832 1 8 1
138.87038435255755 37.36641507137919 1.703832 1 8 1
138.87000120430093 37.36719617238069 1.703832 1 8 1
138.86628673638265 37.366493698541085 1.703832 1 8 1
138.87049661838526 37.369901106404036 1.703832 1 8 1
138.87041330361978 37.36593790620566 1.703832 1 8 1
138.86890245648863 37.37218663508578 1.703832 1 8 1
138.8685119239059 37.33880710912957 1.703832 1 8 1
138.86271155239902 37.35104294775576 1.703832 1 8 1
138.8633197700754 37.35068734387077 1.703832 1 8 1
138.83748058332424 37.33689179674676 1.703832 1 8 1
138.83773903476293 37.33663329749363 1.703832 1 8 1
138.8387538553559 37.33719858899374 1.703832 1 8 1
138.83973540104336 37.33705332865274 1.703832 1 8 1
138.84472578329914 37.351594769403945 1.703832 1 12 1
138.84083471862272 37.35711426697382 1.703832 1 12 1
138.84182803689814 37.36537911716871 1.703832 1 12 1
138.83329034167315 37.345966960478755 0.68230003 1 8 1
138.83227069361385 37.31437633889935 0.33906022 1 8 1
138.8326590441677 37.313160978567566 0.33906022 1 8 1
138.8201579870478 37.27986414571134 0.41979212 1 10 1
138.81974130791875 37.27951342419872 0.41979212 1 10 1
138.82270863156296 37.32107972220846 0.33906022 1 8 1
138.82471499114254 37.31931302495508 0.33906022 1 8 1
138.86356514917873 37.28172320184775 0.22985034 1 10 1
138.83199023059737 37.34266360308178 0.68230003 1 8 1
138.8997188648682 37.409826772088856 2.3334966 1 10 1
138.9020823002194 37.39267660036701 2.3334966 1 8 1
138.90141545854624 37.391120040613046 2.3334966 1 8 1
138.8867355445052 37.37183551678601 1.3686464 1 8 1
138.8839361899968 37.36948325489376 1.3686464 1 8 1
138.88534731908382 37.370238726405695 1.3686464 1 8 1
138.88524963467134 37.36917679502684 1.3686464 1 8 1
138.8840968034727 37.368650853993834 1.3686464 1 8 1
138.8850163162229 37.36837559405678 1.3686464 1 8 1
138.8857907906091 37.36837936272291 1.3686464 1 8 1
138.886199621691 37.36827350655948 1.3686464 1 8 1
138.906219054338 37.33736581718375 1.3686464 1 8 1
138.90155941178298 37.332697347596614 1.3830456 1 8 1
138.90939480002572 37.33086266148269 1.3830456 1 8 1
138.93035687460707 37.33290106075819 1.363345 1 8 1
138.93284900410592 37.32909631478004 1.363345 1 8 1
138.91577767112847 37.31567935712001 1.3830456 1 8 1
138.88023478927573 37.30048986716571 1.3830456 1 8 1
138.89665935951797 37.2818679411738 0.66504335 1 10 1
138.95528054916716 37.270007059435336 0.89842796 1 10 1
138.86826008194893 37.300539091385055 1.1236027 1 8 1
138.8687383987287 37.300758431135804 1.1236027 1 8 1
138.88750453506435 37.287650154796474 0.66504335 1 10 1
138.94255149679603 37.35770633452641 0.65184224 1 8 1
138.84367989986794 37.30314390293164 1.1236027 1 8 0
138.84331465847438 37.30279323913844 1.1236027 1 8 1
138.8435636498014 37.30237937512811 1.1236027 1 8 1
138.90030089826288 37.40000271124285 2.3334966 1 5 1
138.91631936854546 37.3902291643209 2.3334966 1 8 1
138.89240611300573 37.379518375748276 2.3334966 1 8 1
138.88277520484405 37.33440732492899 1.3686464 1 8 1
138.85743388690665 37.344701327193135 1.703832 1 8 1
138.8674859438667 37.347095494623076 1.703832 1 8 1
138.95389225901104 37.33762669784295 0.65184224 1 8 1
138.8341937305504 37.29292144042821 1.1236027 1 10 1
138.85127654177742 37.31879324617928 1.1236027 1 8 1
138.9054663797877 37.328079506169125 1.3830456 1 8 1
138.93310584684926 37.31844993027316 1.363345 1 8 1
138.90496716027724 37.31990046804704 1.3830456 1 8 1
138.91329212613624 37.325701909312556 1.3830456 1 8 1
138.91873780391984 37.33524593138979 0.65184224 1 8 1
138.91906943379166 37.3359241940679 0.65184224 1 8 1
138.92148844192934 37.33532997414713 0.65184224 1 8 1
138.9216704655689 37.334900720384724 0.65184224 1 8 1
138.93346749787048 37.323748012609315 1.363345 1 8 1
138.93377857448516 37.32387016359451 1.363345 1 8 1
138.8962666029975 37.324596679840745 1.3830456 1 8 1
138.89615672592012 37.32435485803543 1.3830456 1 8 1
138.92457369823046 37.316412941378154 1.363345 1 8 1
138.92466807926147 37.316736192854584 1.363345 1 8 1
138.9015904237508 37.287103189248135 0.66504335 1 8 1
138.90112008595858 37.28712731489863 0.66504335 1 8 1
138.88926198936844 37.28830570081702 0.66504335 1 10 1
138.89663516916204 37.28516626179631 0.66504335 1 10 1
138.8969498255934 37.2850750619982 0.66504335 1 10 1
138.91794934272195 37.27678868577454 0.89842796 1 8 1
138.9191234970253 37.27698368364114 0.89842796 1 8 1
138.95890123535725 37.34598892810044 0.56804425 1 8 1
138.9249627576391 37.2754999731627 0.89842796 1 8 1
138.88710621976338 37.27409818746163 0.66504335 1 10 1
138.88660323675768 37.273651060871316 0.66504335 1 10 1
138.88661711708278 37.276624694064765 0.66504335 1 10 1
138.8864350847553 37.276505755824694 0.66504335 1 10 1
138.8749021838723 37.31189286153168 1.1236027 1 8 1
138.86443389148232 37.33252365502991 1.1236027 1 8 1
138.84376039097253 37.32201410059035 1.1236027 1 8 1
138.87146243871192 37.31556016214694 1.1236027 1 8 1
138.81587896763878 37.31948790953389 0.33906022 1 8 1
138.81621124355715 37.31990274120642 0.33906022 1 8 1
138.788997799292 37.253099543552324 0.49251425 1 10 0
138.78922902451566 37.25533153636153 0.49251425 1 10 0
138.78946027522727 37.25756352709839 0.49251425 1 10 0
138.7896915514298 37.25979551576273 0.49251425 1 10 0
138.7899228531261 37.26202750235434 0.49251425 1 10 0
138.79015418031915 37.26425948687306 0.49251425 1 10 0
138.79038553301191 37.266491469318666 0.49251425 1 10 0
138.79061691120725 37.268723449691 0.49251425 1 10 0
138.7908483149082 37.27095542798986 0.49251425 1 10 0
138.79107974411764 37.27318740421506 0.49251425 1 10 0
138.79131119883849 37.27541937836641 0.49251425 1 10 0
138.79154267907373 37.277651350443726 0.49251425 1 10 0
138.7917741848263 37.27988332044681 0.41979212 1 10 0
138.79200571609908 37.28211528837548 0.41979212 1 10 0
138.79223727289508 37.284347254229544 0.41979212 1 10 0
138.7924688552172 37.28657921800882 0.41979212 1 10 0
138.79270046306843 37.28881117971311 0.41979212 1 10 0
138.79293209645166 37.29104313934223 0.41979212 1 10 0
138.79316375536987 37.293275096896 0.33906022 1 10 0
138.79339543982599 37.295507052374205 0.33906022 1 10 0
138.79362714982292 37.29773900577668 0.33906022 1 10 0
138.79385888536368 37.29997095710323 0.33906022 1 10 0
138.79409064645117 37.30220290635367 0.33906022 1 10 0
138.79432243308833 37.30443485352779 0.33906022 1 10 0
138.7945542452781 37.30666679862543 0.33906022 1 10 0
138.7947860830235 37.30889874164638 0.33906022 1 10 0
138.79501794632742 37.31113068259047 0.33906022 1 10 0
138.79524983519278 37.31336262145749 0.33906022 1 10 0
138.79548174962255 37.31559455824728 0.33906022 1 10 0
138.7957136896197 37.31782649295961 0.33906022 1 10 0
138.79594565518718 37.32005842559432 0.33906022 1 10 0
138.7961776463279 37.322290356151214 0.33906022 1 10 0
138.79640966304484 37.324522284630106 0.33906022 1 10 0
138.79664170534096 37.3267542110308 0.33906022 1 10 0
138.79687377321918 37.328986135353105 0.33906022 1 10 0
138.79710586668247 37.33121805759684 0.33906022 1 10 0
138.79733798573378 37.333449977761816 0.68230003 1 10 0
138.79757013037607 37.33568189584784 0.68230003 1 10 0
138.79780230061226 37.33791381185472 0.68230003 1 10 0
138.79803449644535 37.34014572578227 0.68230003 1 10 0
138.79826671787825 37.34237763763031 0.68230003 1 10 0
138.79849896491396 37.344609547398626 0.68230003 1 10 0
138.79873123755542 37.346841455087045 0.68230003 1 10 0
138.79896353580554 37.349073360695385 0.68230003 1 10 0
138.79919585966732 37.35130526422344 0.68230003 1 10 0
138.7994282091437 37.353537165671035 0.68230003 1 10 0
138.79966058423767 37.35576906503797 0.68230003 1 10 0
138.79989298495218 37.358000962324056 0.68230003 1 10 0
138.80012541129014 37.360232857529105 0.68230003 1 12 0
138.80035786325456 37.36246475065294 0.68230003 1 12 0
138.80059034084837 37.36469664169536 0.68230003 1 12 0
138.80082284407456 37.36692853065617 0.68230003 1 12 0
138.80105537293602 37.369160417535184 0.68230003 1 12 0
138.80128792743582 37.37139230233222 0.68230003 1 12 0
138.8015205075768 37.37362418504708 0.68230003 1 12 0
138.80175311336203 37.37585606567958 0.46804282 1 12 0
138.80198574479442 37.37808794422953 0.46804282 1 12 0
138.80221840187693 37.38031982069673 0.46804282 1 12 0
138.80245108461253 37.382551695081006 0.46804282 1 12 0
138.8026837930042 37.38478356738215 0.46804282 1 12 0
138.80291652705486 37.38701543759999 0.46804282 1 12 0
138.80314928676754 37.38924730573433 0.46804282 1 12 0
138.80338207214515 37.39147917178497 0.46804282 1 12 0
138.80361488319068 37.39371103575174 0.46804282 1 12 0
138.80384771990708 37.39594289763444 0.46804282 1 12 0
138.80408058229736 37.398174757432876 0.46804282 1 12 0
138.80431347036443 37.400406615146856 0.46804282 1 13 0
138.80454638411132 37.40263847077621 0.46804282 1 13 0
138.8047793235409 37.40487032432072 0.46804282 1 13 0
138.80501228865626 37.407102175780224 0.46804282 1 13 0
138.80524527946028 37.40933402515451 0.46804282 1 13 0
138.80547829595596 37.41156587244339 0.46804282 1 13 0
138.80571133814632 37.41379771764667 0.46804282 1 13 0
138.80594440603423 37.416029560764194 0.46804282 1 13 0
138.80617749962275 37.41826140179574 0.20349923 1 13 0
138.8064106189148 37.42049324074112 0.20349923 1 13 0
138.80664376391337 37.42272507760014 0.20349923 1 13 0
138.80687693462144 37.424956912372636 0.20349923 1 13 0
138.80711013104195 37.427188745058395 0.20349923 1 13 0
138.7917899846725 37.252914687130826 0.41979212 1 10 0
138.79202129073155 37.25514666508724 0.41979212 1 10 0
138.79225262228732 37.257378640970465 0.41979212 1 10 0
138.79248397934268 37.25961061478031 0.41979212 1 10 0
138.79271536190058 37.26184258651657 0.41979212 1 10 0
138.79294676996392 37.264074556179075 0.41979212 1 10 0
138.79317820353575 37.26630652376763 0.41979212 1 10 0
138.79340966261887 37.26853848928206 0.41979212 1 10 0
138.7936411472163 37.27077045272214 0.41979212 1 10 0
138.79387265733095 37.27300241408771 0.41979212 1 10 0
138.79410419296582 37.27523437337858 0.41979212 1 10 0
138.79433575412375 37.27746633059456 0.41979212 1 10 0
138.7945673408078 37.27969828573545 0.41979212 1 10 0
138.7947989530208 37.28193023880107 0.41979212 1 10 0
138.79503059076572 37.284162189791225 0.41979212 1 10 0
138.79526225404553 37.28639413870574 0.41979212 1 10 0
138.79549394286317 37.288626085544415 0.41979212 1 10 0
138.79572565722157 37.29085803030706 0.41979212 1 10 0
138.7959573971237 37.293089972993485 0.33906022 1 10 0
138.79618916257243 37.29532191360351 0.33906022 1 10 0
138.7964209535708 37.297553852136936 0.33906022 1 10 0
138.79665277012165 37.29978578859359 0.33906022 1 10 0
138.79688461222804 37.30201772297326 0.33906022 1 10 0
138.79711647989285 37.30424965527577 0.33906022 1 10 0
138.79734837311904 37.30648158550093 0.33906022 1 10 0
138.79758029190955 37.308713513648556 0.33906022 1 10 0
138.79781223626733 37.31094543971845 0.33906022 1 10 0
138.79804420619536 37.31317736371042 0.33906022 1 10 0
138.79827620169655 37.3154092856243 0.33906022 1 10 0
138.79850822277382 37.31764120545987 0.33906022 1 10 0
138.7987402694302 37.31987312321696 0.33906022 1 10 0
138.79897234166862 37.32210503889537 0.33906022 1 10 0
138.79920443949197 37.32433695249492 0.33906022 1 10 0
138.79943656290325 37.32656886401542 0.33906022 1 10 0
138.7996687119054 37.32880077345667 0.33906022 1 10 0
138.7999008865014 37.331032680818495 0.33906022 1 10 0
138.80013308669416 37.33326458610069 0.33906022 1 8 0
138.80036531248666 37.33549648930309 0.68230003 1 8 0
138.80059756388187 37.337728390425475 0.68230003 1 8 0
138.80082984088267 37.339960289467676 0.68230003 1 8 0
138.80106214349212 37.3421921864295 0.68230003 1 8 0
138.80129447171308 37.34442408131074 0.68230003 1 8 0
138.80152682554856 37.346655974111236 0.68230003 1 8 0
138.80175920500153 37.348887864830786 0.68230003 1 8 0
138.8019916100749 37.35111975346919 0.68230003 1 12 0
138.80222404077165 37.353351640026276 0.68230003 1 12 0
138.80245649709474 37.35558352450184 0.68230003 1 12 0
138.80268897904713 37.3578154068957 0.68230003 1 12 0
138.80292148663176 37.360047287207664 0.68230003 1 12 0
138.80315401985163 37.36227916543754 0.68230003 1 12 0
138.80338657870965 37.36451104158515 0.68230003 1 12 0
138.80361916320882 37.36674291565029 0.68230003 1 12 0
138.8038517733521 37.36897478763277 0.68230003 1 12 0
138.8040844091424 37.37120665753242 0.68230003 1 12 0
138.80431707058275 37.373438525349016 0.68230003 1 12 0
138.80454975767606 37.37567039108241 0.46804282 1 12 0
138.80478247042535 37.377902254732376 0.46804282 1 12 0
138.8050152088335 37.380134116298734 0.46804282 1 12 0
138.80524797290357 37.38236597578131 0.46804282 1 12 0
138.80548076263847 37.3845978331799 0.46804282 1 12 0
138.80571357804115 37.38682968849432 0.46804282 1 12 0
138.80594641911463 37.389061541724374 0.46804282 1 12 0
138.80617928586184 37.39129339286987 0.46804282 1 12 0
138.80641217828574 37.393525241930625 0.46804282 1 12 0
138.8066450963893 37.39575708890646 0.46804282 1 12 0
138.80687804017552 37.39798893379715 0.46804282 1 12 0
138.80711100964734 37.400220776602545 0.46804282 1 13 0
138.80734400480773 37.40245261732244 0.46804282 1 13 0
138.8075770256597 37.404684455956634 0.46804282 1 13 0
138.80781007220614 37.406916292504945 0.46804282 1 13 0
138.80804314445012 37.40914812696718 0.46804282 1 13 0
138.8082762423945 37.41137995934315 0.46804282 1 13 0
138.80850936604236 37.41361178963267 0.46804282 1 13 0
138.80874251539657 37.41584361783555 0.46804282 1 13 0
138.8089756904602 37.41807544395159 0.20349923 1 13 0
138.80920889123612 37.42030726798061 0.20349923 1 13 0
138.8094421177274 37.42253908992241 0.20349923 1 13 0
138.80967536993697 37.424770909776804 0.20349923 1 13 0
138.80990864786781 37.42700272754361 0.20349923 1 13 0
138.79458214455906 37.25272976563894 0.41979212 1 10 0
138.79481353145056 37.25496172873742 0.41979212 1 10 0
138.7950449438475 37.25719368976185 0.41979212 1 10 0
138.79527638175276 37.259425648712046 0.41979212 1 10 0
138.7955078451693 37.2616576055878 0.41979212 1 10 0
138.79573933410003 37.26388956038894 0.41979212 1 10 0
138.79597084854794 37.26612151311528 0.41979212 1 10 0
138.79620238851592 37.26835346376663 0.41979212 1 10 0
138.79643395400691 37.27058541234279 0.41979212 1 10 0
138.7966655450239 37.272817358843575 0.41979212 1 10 0
138.7968971615698 37.27504930326881 0.41979212 1 10 0
138.79712880364752 37.27728124561828 0.41979212 1 10 0
138.79736047126005 37.27951318589182 0.41979212 1 10 0
138.7975921644103 37.281745124089234 0.41979212 1 10 0
138.79782388310124 37.283977060210326 0.41979212 1 10 0
138.7980556273358 37.286208994254906 0.41979212 1 10 0
138.7982873971169 37.28844092622281 0.41979212 1 10 0
138.79851919244751 37.29067285611382 0.41979212 1 10 0
138.7987510133306 37.29290478392775 0.33906022 1 10 0
138.798982859769 37.295136709664426 0.33906022 1 10 0
138.79921473176583 37.29736863332365 0.33906022 1 10 0
138.7994466293239 37.29960055490523 0.33906022 1 10 0
138.79967855244624 37.30183247440898 0.33906022 1 10 0
138.79991050113574 37.304064391834714 0.33906022 1 10 0
138.80014247539535 37.306296307182244 0.33906022 1 8 0
138.8003744752281 37.308528220451365 0.33906022 1 8 0
138.8006065006368 37.31076013164191 0.33906022 1 8 0
138.8008385516245 37.31299204075367 0.33906022 1 8 0
138.80107062819414 37.31522394778647 0.33906022 1 8 0
138.80130273034865 37.31745585274012 0.33906022 1 8 0
138.80153485809097 37.31968775561442 0.33906022 1 8 0
138.80176701142406 37.32191965640918 0.33906022 1 8 0
138.8019991903509 37.32415155512423 0.33906022 1 8 0
138.8022313948744 37.32638345175937 0.33906022 1 8 0
138.80246362499756 37.32861534631439 0.33906022 1 8 0
138.8026958807233 37.33084723878914 0.33906022 1 8 0
138.8029281620546 37.333079129183396 0.33906022 1 8 0
138.80316046899435 37.33531101749699 0.68230003 1 8 0
138.80339280154556 37.33754290372972 0.68230003 1 8 0
138.80362515971117 37.3397747878814 0.68230003 1 8 0
138.80385754349416 37.34200666995185 0.68230003 1 8 0
138.80408995289747 37.34423854994086 0.68230003 1 8 0
138.80432238792406 37.34647042784825 0.68230003 1 8 0
138.80455484857688 37.34870230367384 0.68230003 1 8 0
138.80478733485884 37.350934177417436 0.68230003 1 12 0
138.80501984677304 37.353166049078844 0.68230003 1 12 0
138.80525238432227 37.355397918657864 0.68230003 1 12 0
138.8054849475096 37.35762978615433 0.68230003 1 12 0
138.80571753633794 37.35986165156803 0.68230003 1 12 0
138.80595015081028 37.36209351489879 0.68230003 1 12 0
138.80618279092954 37.36432537614642 0.68230003 1 12 0
138.80641545669874 37.366557235310715 0.68230003 1 12 0
138.80664814812084 37.368789092391495 0.68230003 1 12 0
138.8068808651987 37.37102094738857 0.68230003 1 12 0
138.80711360793543 37.37325280030175 0.68230003 1 12 0
138.8073463763339 37.375484651130854 0.46804282 1 12 0
138.8075791703971 37.377716499875675 0.46804282 1 12 0
138.80781199012796 37.379948346536025 0.46804282 1 12 0
138.8080448355295 37.382180191111736 0.46804282 1 12 0
138.80827770660466 37.38441203360258 0.46804282 1 12 0
138.8085106033564 37.386643874008406 0.46804282 1 12 0
138.80874352578772 37.388875712329 0.46804282 1 12 0
138.80897647390157 37.39110754856417 0.46804282 1 12 0
138.80920944770088 37.393339382713755 0.46804282 1 12 0
138.80944244718864 37.39557121477753 0.46804282 1 12 0
138.80967547236784 37.39780304475533 0.46804282 1 12 0
138.80990852324146 37.40003487264694 0.46804282 1 13 0
138.81014159981243 37.4022666984522 0.46804282 1 13 0
138.81037470208372 37.4044985221709 0.46804282 1 13 0
138.81060783005833 37.406730343802856 0.46804282 1 13 0
138.8108409837392 37.408962163347866 0.46804282 1 13 0
138.81107416312935 37.411193980805756 0.46804282 1 13 0
138.81130736823172 37.41342579617632 0.46804282 1 13 0
138.8115405990493 37.41565760945939 0.46804282 1 13 0
138.81177385558505 37.417889420654745 0.20349923 1 13 0
138.8120071378419 37.42012122976222 0.20349923 1 13 0
138.8122404458229 37.42235303678162 0.20349923 1 13 0
138.81247377953102 37.42458484171275 0.20349923 1 13 0
138.81270713896916 37.42681664455542 0.20349923 1 13 0
138.79737427894287 37.25254477907856 0.41979212 1 10 0
138.79760574666392 37.25477672731394 0.41979212 1 10 0
138.79783723989908 37.25700867347442 0.41979212 1 10 0
138.7980687586513 37.259240617559804 0.41979212 1 10 0
138.7983003029236 37.2614725595699 0.41979212 1 10 0
138.79853187271877 37.26370449950453 0.41979212 1 10 0
138.79876346803982 37.265936437363486 0.41979212 1 10 0
138.79899508888968 37.26816837314661 0.41979212 1 10 0
138.79922673527133 37.270400306853674 0.41979212 1 10 0
138.7994584071877 37.272632238484526 0.41979212 1 10 0
138.79969010464166 37.274864168038945 0.41979212 1 10 0
138.79992182763624 37.27709609551677 0.41979212 1 10 0
138.80015357617432 37.279328020917795 0.41979212 1 10 0
138.8003853502589 37.28155994424184 0.41979212 1 10 0
138.80061714989287 37.28379186548871 0.41979212 1 10 0
138.80084897507922 37.28602378465821 0.41979212 1 10 0
138.80108082582086 37.28825570175017 0.41979212 1 10 0
138.80131270212075 37.29048761676438 0.41979212 1 10 0
138.80154460398182 37.29271952970067 0.33906022 1 10 0
138.80177653140706 37.294951440558826 0.33906022 1 10 0
138.80200848439935 37.297183349338674 0.33906022 1 10 0
138.8022404629617 37.299415256040035 0.33906022 1 10 0
138.802472467097 37.301647160662704 0.33906022 1 8 0
138.80270449680825 37.30387906320649 0.33906022 1 8 0
138.80293655209837 37.306110963671216 0.33906022 1 8 0
138.8031686329703 37.30834286205668 0.33906022 1 8 0
138.80340073942705 37.31057475836271 0.33906022 1 8 0
138.80363287147148 37.312806652589096 0.33906022 1 8 0
138.80386502910662 37.315038544735664 0.33906022 1 8 0
138.8040972123354 37.31727043480222 0.33906022 1 8 0
138.8043294211607 37.319502322788566 0.33906022 1 8 0
138.8045616555856 37.32173420869452 0.33906022 1 8 0
138.80479391561292 37.3239660925199 0.33906022 1 8 0
138.8050262012457 37.32619797426451 0.33906022 1 8 0
138.80525851248692 37.32842985392815 0.33906022 1 8 0
138.80549084933944 37.330661731510645 0.33906022 1 8 0
138.80572321180625 37.3328936070118 0.33906022 1 8 0
138.80595559989035 37.33512548043143 0.68230003 1 8 0
138.80618801359464 37.337357351769334 0.68230003 1 8 0
138.80642045292208 37.339589221025335 0.68230003 1 8 0
138.80665291787565 37.34182108819923 0.68230003 1 8 0
138.80688540845833 37.344052953290834 0.68230003 1 8 0
138.80711792467307 37.34628481629996 0.68230003 1 8 0
138.80735046652276 37.34851667722643 0.68230003 1 8 0
138.80758303401043 37.350748536070036 0.68230003 1 12 0
138.807815627139 37.3529803928306 0.68230003 1 12 0
138.8080482459115 37.355212247507914 0.68230003 1 12 0
138.80828089033076 37.35744410010181 0.68230003 1 12 0
138.80851356039986 37.359675950612086 0.68230003 1 12 0
138.80874625612174 37.36190779903855 0.68230003 1 12 0
138.8089789774993 37.36413964538103 0.68230003 1 12 0
138.80921172453557 37.36637148963931 0.68230003 1 12 0
138.8094444972335 37.368603331813226 0.68230003 1 12 0
138.80967729559603 37.37083517190257 0.68230003 1 12 0
138.80991011962612 37.37306700990715 0.68230003 1 12 0
138.81014296932673 37.37529884582679 0.46804282 1 12 0
138.8103758447009 37.3775306796613 0.46804282 1 12 0
138.81060874575152 37.37976251141046 0.46804282 1 12 0
138.81084167248156 37.381994341074126 0.46804282 1 12 0
138.81107462489405 37.38422616865207 0.46804282 1 12 0
138.8113076029919 37.38645799414412 0.46804282 1 12 0
138.81154060677804 37.38868981755009 0.46804282 1 12 0
138.81177363625554 37.39092163886977 0.46804282 1 12 0
138.81200669142729 37.393153458102994 0.46804282 1 12 0
138.8122397722963 37.39538527524955 0.46804282 1 12 0
138.81247287886552 37.39761709030927 0.46804282 1 12 0
138.81270601113792 37.39984890328194 0.46804282 1 12 0
138.81293916911648 37.40208071416739 0.46804282 1 13 0
138.81317235280417 37.40431252296541 0.46804282 1 13 0
138.81340556220397 37.40654432967583 0.46804282 1 13 0
138.81363879731882 37.40877613429845 0.46804282 1 13 0
138.81387205815173 37.41100793683307 0.46804282 1 13 0
138.81410534470567 37.41323973727951 0.46804282 1 13 0
138.81433865698358 37.41547153563759 0.46804282 1 13 0
138.81457199498848 37.41770333190709 0.20349923 1 13 0
138.8148053587233 37.419935126087864 0.20349923 1 13 0
138.81503874819106 37.42216691817967 0.20349923 1 13 0
138.8152721633947 37.42439870818235 0.20349923 1 13 0
138.8155056043372 37.42663049609571 0.20349923 1 13 0
138.8001663878153 37.25235972745154 0.41979212 1 10 0
138.8003979363629 37.25459166081867 0.41979212 1 10 0
138.8006295104334 37.25682359211004 0.41979212 1 10 0
138.80086111002967 37.25905552132546 0.41979212 1 10 0
138.80109273515467 37.261287448464735 0.41979212 1 10 0
138.80132438581137 37.263519373527686 0.41979212 1 10 0
138.80155606200262 37.26575129651412 0.41979212 1 10 0
138.80178776373148 37.26798321742385 0.41979212 1 10 0
138.8020194910008 37.270215136256674 0.41979212 1 10 0
138.80225124381357 37.27244705301242 0.41979212 1 10 0
138.8024830221727 37.27467896769089 0.41979212 1 10 0
138.80271482608117 37.2769108802919 0.41979212 1 10 0
138.80294665554192 37.27914279081525 0.41979212 1 10 0
138.80317851055784 37.281374699260766 0.41979212 1 10 0
138.80341039113193 37.28360660562825 0.41979212 1 10 0
138.80364229726712 37.28583850991751 0.41979212 1 10 0
138.80387422896632 37.28807041212837 0.41979212 1 10 0
138.80410618623256 37.29030231226062 0.41979212 1 10 0
138.8043381690687 37.292534210314095 0.33906022 1 10 0
138.80457017747773 37.29476610628858 0.33906022 1 10 0
138.8048022114626 37.2969980001839 0.33906022 1 10 0
138.80503427102624 37.29922989199987 0.33906022 1 10 0
138.80526635617161 37.30146178173629 0.33906022 1 8 0
