135.3240531961483 34.801741913420535 1.6901203 4 9 1
135.3243352944834 34.80182947295143 1.6901203 4 9 1
135.32410742096187 34.80189663299795 1.6901203 4 9 1
135.32493349836295 34.80204035838775 1.6901203 4 9 1
135.32480578275266 34.80239511973729 1.6901203 4 9 1
135.3244378076912 34.80264894512709 1.6901203 4 9 1
135.3204303686314 34.794218960655876 1.6901203 4 13 1
135.3216337843017 34.79419657544763 1.6901203 4 13 1
135.32168932578793 34.794420343954734 1.6901203 4 13 1
135.32167451137988 34.79394834447398 1.6901203 4 13 1
135.32274521545517 34.793154286943896 1.6901203 4 13 1
135.32326761934755 34.79320652977556 1.6901203 4 13 1
135.32398872558983 34.79335494934367 1.6901203 4 13 1
135.32405400103454 34.793243530921494 1.6901203 4 13 1
135.32405894568035 34.793708185220055 1.6901203 4 13 1
135.32351985638192 34.793871406784696 1.6901203 4 13 1
135.32371357986318 34.79454156937358 1.6901203 4 13 1
135.32374945188337 34.794645555548385 1.6901203 4 13 1
135.32439515503413 34.79496882093558 1.6901203 4 13 1
135.3249770443371 34.79476570557114 1.6901203 4 13 1
135.32353277405414 34.7954794209225 1.6901203 4 13 1
135.3234184085557 34.7955756648384 1.6901203 4 13 1
135.32361933818666 34.795611365050796 1.6901203 4 13 1
135.32421622460186 34.79543092649449 1.6901203 4 13 1
135.3246165868526 34.79538009627547 1.6901203 4 13 1
135.32302970080812 34.79584807619107 1.6901203 4 13 1
135.3242932562211 34.79590034312899 1.6901203 4 13 1
135.3246863385584 34.79571629801989 1.6901203 4 13 1
135.32473031223267 34.7958005044081 1.6901203 4 13 1
135.32594311992065 34.79411877720996 1.6901203 4 13 1
135.32565561819868 34.795938839720264 1.6901203 4 13 1
135.32580596206128 34.796011795917295 1.6901203 4 13 1
135.32573746863656 34.79621201775299 1.6901203 4 13 1
135.32707847297544 34.796129696694315 1.6901203 4 13 1
135.32721726529 34.7960995773336 1.6901203 4 13 1
135.327401709398 34.79615555377851 1.6901203 4 13 1
135.32827809644948 34.79574640196537 1.6901203 4 13 1
135.32868820182796 34.79598915389983 1.6901203 4 13 1
135.3292562774684 34.79666268938509 1.6901203 4 13 1
135.32888486620917 34.79555611418799 1.6901203 4 13 1
135.32904692852807 34.79554009824178 1.6901203 4 13 1
135.32717889787867 34.794284586550546 1.6901203 4 13 1
135.3255638169656 34.80248630654955 1.6901203 4 9 1
135.32473469595664 34.792916779899265 1.6901203 4 13 1
135.3252393850237 34.79243619902014 1.6901203 4 13 1
135.32694714791572 34.79220288302923 1.6901203 4 13 1
135.32748621520702 34.79440564373725 1.6901203 4 13 1
135.32750269751912 34.79429530514501 1.6901203 4 13 1
135.3293799539279 34.7951812781742 1.6901203 4 13 1
135.3283859951223 34.79249141107996 1.6901203 4 13 1
135.33698041099862 34.77715160819034 1.3336929 4 13 1
135.3260020607198 34.80188969114696 1.6901203 4 9 1
135.32607812642286 34.801947388643796 1.6901203 4 9 1
135.3260655829586 34.802281991765604 1.6901203 4 9 1
135.32594012400818 34.80308785613096 1.6901203 4 9 1
135.32632979263562 34.8035515699488 1.6901203 4 9 1
135.32677521172562 34.80346495464454 1.6901203 4 9 1
135.32703063121158 34.80349660395823 1.6901203 4 9 1
135.32751430895607 34.80349897872343 1.6901203 4 9 1
135.32767077121846 34.803445715100175 1.6901203 4 9 1
135.32778755204825 34.803500185937935 1.6901203 4 9 1
135.32809713947415 34.80358609702496 1.6901203 4 9 1
135.32818297908426 34.80365556860337 1.6901203 4 9 1
135.32840411260594 34.80345342150309 1.6901203 4 9 1
135.32886217801007 34.803059597390096 1.6901203 4 9 1
135.3289354483693 34.802967150231936 1.6901203 4 9 1
135.3288445674391 34.802902252591196 1.6901203 4 9 1
135.32771896144232 34.80192272464417 1.6901203 4 9 1
135.32744307114308 34.80191837100575 1.6901203 4 9 1
135.33036093736226 34.80292593466698 1.6901203 4 9 1
135.33099981410402 34.80357824902284 1.6901203 4 9 1
135.33192139825948 34.80356891355621 1.6901203 4 9 1
135.33251595118068 34.8034086435211 1.6901203 4 9 1
135.3306373008188 34.80208741209533 1.6901203 4 9 1
135.33144999675253 34.806315395877554 1.6901203 4 9 1
135.32239335430435 34.81230238745474 1.6901203 4 9 1
135.3241061485036 34.81085461724606 1.6901203 4 9 1
135.3244272857676 34.8107696916159 1.6901203 4 9 1
135.32483317262296 34.81090437712495 1.6901203 4 9 1
135.3248445605455 34.81125454344421 1.6901203 4 9 1
135.32473706455934 34.811656281335246 1.6901203 4 9 1
135.32474667354518 34.81173361536729 1.6901203 4 9 1
135.32540366766133 34.81151378934696 1.6901203 4 9 1
135.32591187208578 34.81161082741611 1.6901203 4 9 1
135.32574654153478 34.81141246596649 1.6901203 4 9 1
135.3256652843617 34.81120664516938 1.6901203 4 9 1
135.3260592370871 34.8113548110099 1.6901203 4 9 1
135.32604162660678 34.811213883219686 1.6901203 4 9 1
135.3258930331698 34.811097932509796 1.6901203 4 9 1
135.32596496658093 34.8110024102738 1.6901203 4 9 1
135.32610867300255 34.81104361122404 1.6901203 4 9 1
135.3261229914279 34.81085130272932 1.6901203 4 9 1
135.32590561466512 34.81316666319607 1.6901203 4 9 1
135.3259680259581 34.81327661566745 1.6901203 4 9 1
135.3269296902475 34.8102883966541 1.6901203 4 9 1
135.32710775037046 34.81058342776604 1.6901203 4 9 1
135.32718608340724 34.81071793584409 1.6901203 4 9 1
135.32832625738115 34.810851944521886 1.6901203 4 9 1
135.32680391945524 34.810424147647375 1.6901203 4 9 1
135.33165270148683 34.8122666128775 1.6901203 4 9 1
135.3283670505112 34.80960991090659 1.6901203 4 9 1
135.32880188978353 34.809252475221065 1.6901203 4 9 1
135.3290771499445 34.80934736404347 1.6901203 4 9 1
135.32932271671308 34.80945852956487 1.6901203 4 9 1
135.32861156546525 34.808981916216645 1.6901203 4 9 1
135.3278105009784 34.80890523070039 1.6901203 4 9 1
135.32803679121375 34.808220108756935 1.6901203 4 9 1
135.32920693595247 34.809336067267054 1.6901203 4 9 1
135.3254672687066 34.80901730824312 1.6901203 4 9 1
135.32585755655154 34.80905447737717 1.6901203 4 9 1
135.32596521720166 34.808637112679016 1.6901203 4 9 1
135.32630670324042 34.80807564966121 1.6901203 4 9 1
135.32678779835393 34.807510786309315 1.6901203 4 9 1
135.32646607112875 34.80752216566764 1.6901203 4 9 1
135.32624404162496 34.807948196797355 1.6901203 4 9 1
135.32536329726423 34.807532641896486 1.6901203 4 9 1
135.3252597647608 34.807441177175775 1.6901203 4 9 1
135.3259423938091 34.807264219243066 1.6901203 4 9 1
135.32629017673423 34.807181853359616 1.6901203 4 9 1
135.32479020185883 34.80767550865697 1.6901203 4 9 1
135.32476398635887 34.80740290569134 1.6901203 4 9 1
135.32447049391595 34.80730066225689 1.6901203 4 9 1
135.32483019571657 34.806913417097974 1.6901203 4 9 1
135.32794720686127 34.807439723030384 1.6901203 4 9 1
135.328078764106 34.807613455952016 1.6901203 4 9 1
135.32822195656183 34.80762638453579 1.6901203 4 9 1
135.3282925353697 34.807747371219435 1.6901203 4 9 1
135.32831704472795 34.80748067317395 1.6901203 4 9 1
135.32992089192115 34.807814018288255 1.6901203 4 9 1
135.33008989589229 34.80803956720889 1.6901203 4 9 1
135.3303971227287 34.808257149004085 1.6901203 4 9 1
135.32534940386194 34.815448250649816 1.6901203 4 9 1
135.32550567934277 34.81665826587612 1.6901203 4 9 1
135.1515065533976 34.753928129270356 0.9115152 4 5 1
135.15134414431378 34.753868234632655 0.9115152 4 5 1
135.1634930805953 34.75853862850705 0.9115152 4 5 1
135.16370725244022 34.759213186715876 0.9115152 4 5 1
135.1640690719846 34.75916681369489 0.9115152 4 5 1
135.17536778051826 34.75285709808899 0.8350113 4 5 1
135.17695611117617 34.754811027008614 0.8350113 4 5 1
135.17633072353675 34.755159599772604 0.8350113 4 5 1
135.17726165812797 34.75577990585926 0.8350113 4 5 1
135.17514606966046 34.755913348340734 0.8350113 4 5 1
135.17502849737642 34.756241316456304 0.8350113 4 5 1
135.177971239064 34.75720340389206 0.8350113 4 5 1
135.17509165471247 34.75602879291223 0.8350113 4 5 1
135.17397846565117 34.757922800252565 0.8350113 4 5 1
135.17477355643018 34.759411742184454 0.8350113 4 5 1
135.17116979091242 34.75965826048681 0.8350113 4 5 1
135.1777398689759 34.76060767346909 0.8350113 4 5 1
135.17877604748347 34.76092857300113 0.8350113 4 5 1
135.16988877026674 34.759501679994216 0.8350113 4 5 1
135.1866999058646 34.76531334559483 0.8350113 4 5 1
135.18346325120504 34.759244037472776 0.8350113 4 5 1
135.18377022716098 34.75939654935345 0.8350113 4 5 1
135.18512868621605 34.759898251341156 0.8350113 4 5 1
135.1839185534998 34.75928422720798 0.8350113 4 5 1
135.20508265686743 34.77471744956575 0.8350113 4 5 1
135.20057375229337 34.76843952036631 0.8350113 4 5 1
135.20534715564125 34.76945097822978 0.8350113 4 5 1
135.2149118549721 34.77275232274165 0.47891423 4 5 1
135.21204191394173 34.77274834120941 0.47891423 4 5 1
135.21311644231875 34.77327780606939 0.47891423 4 5 1
135.21297059734493 34.77332585388678 0.47891423 4 5 1
135.2126241151951 34.77384304192731 0.47891423 4 5 1
135.21332295032303 34.774985716554504 0.47891423 4 5 1
135.21573063873646 34.77631789356271 0.47891423 4 5 1
135.21820908328291 34.774126673274225 0.47891423 4 5 1
135.2181301728628 34.774287411690544 0.47891423 4 5 1
135.21857567215915 34.774471088425486 0.47891423 4 5 1
135.2187924902498 34.774973561534395 0.47891423 4 5 1
135.22059246595958 34.775854342956926 0.47891423 4 5 1
135.220519701682 34.776700935385946 0.47891423 4 5 1
135.2180480578105 34.77818800938466 0.47891423 4 5 1
135.21316123959917 34.777829933596756 0.47891423 4 5 1
135.21956649756405 34.78776595653722 0.47891423 4 5 1
135.2197101931097 34.785689657582715 0.47891423 4 5 1
135.21939766680438 34.785090667278745 0.47891423 4 5 1
135.22374539268762 34.78788742883174 0.47891423 4 5 1
135.2261363015245 34.787670164268924 0.47891423 4 5 1
135.22259995846767 34.78313461148697 0.47891423 4 5 1
135.22469203622998 34.78309139767419 0.47891423 4 5 1
135.22460234377053 34.78326535383979 0.47891423 4 5 1
135.22605707837064 34.78434509623987 0.47891423 4 5 1
135.22604586203698 34.78473506063047 0.47891423 4 5 1
135.2174889427225 34.780737346300405 0.47891423 4 5 1
135.21974805495648 34.77882699369739 0.47891423 4 5 1
135.22000546924022 34.778563941969466 0.47891423 4 5 1
135.2199494673776 34.77882141819386 0.47891423 4 5 1
135.2195722349429 34.778403226817154 0.47891423 4 5 1
135.21954783214213 34.77782977739093 0.47891423 4 5 1
135.22540750273646 34.77786357868799 0.47891423 4 5 1
135.22558245861214 34.77803797430337 0.47891423 4 5 1
135.22628144115583 34.778720323075305 0.47891423 4 5 1
135.22645053712105 34.7788225458994 0.47891423 4 5 1
135.22620338168568 34.7792435145247 0.47891423 4 5 1
135.2263232347367 34.778971976895534 0.47891423 4 5 1
135.22655074443077 34.77911734592368 0.47891423 4 5 1
135.22641644875924 34.7793702419849 0.47891423 4 5 1
135.22669875623794 34.779187192911984 0.47891423 4 5 1
135.22746113126942 34.77971413649892 0.47891423 4 5 1
135.22752899632107 34.779886232889446 0.47891423 4 5 1
135.22624919532214 34.779117425367836 0.47891423 4 5 1
135.23345690873433 34.784597985458625 0.47891423 4 5 1
135.23591557780213 34.786043579911 0.47891423 4 5 1
135.23531161991892 34.78383353630662 0.47891423 4 5 1
135.235764731869 34.7841767480567 0.47891423 4 5 1
135.2368176361031 34.78461558386607 0.47891423 4 5 1
135.23888739870358 34.78495361429137 0.47891423 4 5 1
135.23812806050734 34.785814022850275 0.47891423 4 5 1
135.24000212911582 34.78653355231834 0.47891423 4 5 1
135.23912648727412 34.78655142149677 0.47891423 4 5 1
135.23893931808584 34.78677544650898 0.47891423 4 5 1
135.2386805607585 34.78708422457131 0.47891423 4 5 1
135.236956665852 34.7866788624805 0.47891423 4 5 1
135.24027531880787 34.784793397785265 0.47891423 4 5 1
135.23622509563984 34.78784948865868 0.47891423 4 5 1
135.23676389583474 34.78912264842338 0.47891423 4 5 1
135.23772635198443 34.78956243825343 0.47891423 4 5 1
135.23466339059487 34.78657136955613 0.47891423 4 5 1
135.23384932289758 34.78790307038505 0.47891423 4 5 1
135.2332475758277 34.787876734391446 0.47891423 4 5 1
135.23299929971904 34.78878365910922 0.47891423 4 5 1
135.23069756845786 34.785936846634776 0.47891423 4 5 1
135.22889054889836 34.78538512679061 0.47891423 4 5 1
135.2280579777379 34.78654893756339 0.47891423 4 5 1
135.23649126637682 34.79054836536992 0.47891423 4 5 1
135.23427004436545 34.78989503443155 0.47891423 4 5 1
135.2348234144021 34.78947515528556 0.47891423 4 5 1
135.23220919642205 34.790134873593566 0.47891423 4 5 1
135.23222580503761 34.79031193848447 0.47891423 4 5 1
135.23225298634557 34.79043905930706 0.47891423 4 5 1
135.22835052945186 34.79001009190865 0.47891423 4 5 1
135.22852803690594 34.79037922256625 0.47891423 4 5 1
135.2264698837422 34.79025625782037 0.47891423 4 5 1
135.22721762231694 34.79111107114449 0.47891423 4 5 1
135.22732527617944 34.791083728826756 0.47891423 4 5 1
135.22612511548886 34.79144478619717 0.47891423 4 5 1
135.22822247276338 34.7923450870515 2.2946413 4 5 1
135.22951715485118 34.79179585276739 2.2946413 4 5 1
135.23058749517529 34.793570435415795 2.2946413 4 5 1
135.23089236331677 34.79366470228283 2.2946413 4 5 1
135.23115122990188 34.793654837911646 2.2946413 4 5 1
135.23165002604378 34.7936395569088 2.2946413 4 5 1
135.23195280569487 34.793611540851934 2.2946413 4 5 1
135.23295244900658 34.793600080712935 2.2946413 4 5 1
135.23358160500555 34.793698933947276 2.2946413 4 5 1
135.2340504710284 34.79368889717627 2.2946413 4 5 1
135.23463765739513 34.79358269414805 2.2946413 4 5 1
135.23174925719792 34.79859601450057 2.2946413 4 5 1
135.23258205514443 34.79863845829952 2.2946413 4 5 1
135.23074351087652 34.79924118980593 2.2946413 4 5 1
135.2261717361542 34.80097931173484 2.2946413 4 13 1
135.23204084738975 34.80189947270491 2.2946413 4 13 1
135.23657204670837 34.80018344722054 2.2946413 4 13 1
135.23873090139344 34.80245680120062 2.2946413 4 13 1
135.23902718644584 34.8023517994823 2.2946413 4 13 1
135.2425614186832 34.79918937656767 2.2946413 4 5 1
135.2424776953066 34.79886516566178 2.2946413 4 5 1
135.23642229025992 34.79524917733171 2.2946413 4 5 1
135.23715617558705 34.79505629963662 2.2946413 4 5 1
135.23636330309813 34.792690411794325 2.2946413 4 5 1
135.23618904382153 34.79295393727095 2.2946413 4 5 1
135.23589953273853 34.79311174363867 2.2946413 4 5 1
135.23588640118825 34.793285310042855 2.2946413 4 5 1
135.23716439912366 34.7944188657374 2.2946413 4 5 1
135.2382033468901 34.79315612509812 2.2946413 4 5 1
135.23884255754336 34.79468484645814 2.2946413 4 5 1
135.24031894322985 34.79592931974655 2.2946413 4 5 1
135.24300548010285 34.79585463759884 2.2946413 4 5 1
135.24299938205021 34.79663925244842 2.2946413 4 5 1
135.24125329800088 34.79231709727131 2.2946413 4 5 1
135.24207706857877 34.79010079976294 0.47891423 4 5 1
135.24251544421676 34.79003996928775 0.47891423 4 5 1
135.2427807672265 34.7900828681731 0.47891423 4 5 1
135.24213339097412 34.789179456153235 0.47891423 4 5 1
135.2416289405174 34.78853052901061 0.47891423 4 5 1
135.24452626261163 34.78872041748957 0.47891423 4 5 1
135.2438426790988 34.787761990382016 0.47891423 4 5 1
135.24430733824545 34.7874764288678 0.47891423 4 5 1
135.25747199371966 34.796536197299304 1.8344836 4 5 1
135.25364264579073 34.80210691390048 1.8344836 4 8 1
135.25374490465467 34.80246330340359 1.8344836 4 8 1
135.2537701102682 34.80177374773858 1.8344836 4 8 1
135.2451155526127 34.80108985286474 2.2946413 4 13 1
135.25673686530786 34.8057878807594 1.8344836 4 8 1
135.25707609886936 34.805885725363126 1.8344836 4 8 1
135.25720798427585 34.80400521044092 1.8344836 4 8 1
135.26047265229568 34.8037824220206 1.8344836 4 8 1
135.2609051237655 34.79940276776137 1.8344836 4 5 1
135.2610940763606 34.79955913940641 1.8344836 4 5 1
135.2612131964293 34.79983872850057 1.8344836 4 5 1
135.26158318859564 34.80010396819701 1.8344836 4 8 1
135.262109920368 34.80028238208885 1.8344836 4 8 1
135.26239750290583 34.80073636056327 1.8344836 4 8 1
135.2623113716389 34.801238826212426 1.8344836 4 8 1
135.26258489177178 34.80113045180786 1.8344836 4 8 1
135.26288886064881 34.80068428086383 1.8344836 4 8 1
135.26309726670956 34.800712592033406 1.8344836 4 8 1
135.26363490892786 34.80114493252506 1.8344836 4 8 1
135.26365824546582 34.801438439378174 1.8344836 4 8 1
135.26171003535194 34.79953778622527 1.8344836 4 5 1
135.26221534747177 34.79986108149262 1.8344836 4 5 1
135.26130998299487 34.79904839082226 1.8344836 4 5 1
135.26240787571308 34.798975877821896 1.8344836 4 5 1
135.26133466573853 34.79835014917058 1.8344836 4 5 1
135.2614942012174 34.79819041374137 1.8344836 4 5 1
135.26083089415783 34.7976112464578 1.8344836 4 5 1
135.26288826979902 34.80022387509339 1.8344836 4 8 1
135.26775059537528 34.804403777097846 1.8344836 4 8 1
135.2662307250565 34.801940740036834 1.8344836 4 8 1
135.26647458815492 34.80166027555417 1.8344836 4 8 1
135.2661488430474 34.80181121890182 1.8344836 4 8 1
135.26596401884584 34.80172369908154 1.8344836 4 8 1
135.26854108918366 34.80145106736013 1.8344836 4 8 1
135.27001472865518 34.80104723160961 1.8344836 4 8 1
135.27048639152605 34.80103006252387 1.8344836 4 8 1
135.26595024125575 34.79868481893056 1.8344836 4 5 1
135.2716380108828 34.80223008479739 1.8344836 4 8 1
135.27117208992752 34.804854206694635 1.8344836 4 8 1
135.2711901821464 34.819275686996086 1.8344836 4 8 1
135.2724889520209 34.818002207706655 1.8344836 4 8 1
135.27264010200142 34.817803609275515 1.8344836 4 8 1
135.2799179632819 34.80925168169513 1.8344836 4 8 1
135.28102936703215 34.80885420657814 1.8344836 4 8 1
135.28013045008296 34.808651887868834 1.8344836 4 8 1
135.2806905486715 34.808308127212705 1.8344836 4 8 1
135.28159698024464 34.8083372471506 1.8344836 4 8 1
135.28156229067383 34.80821215280509 1.8344836 4 8 1
135.28204008804428 34.80791450669204 1.8344836 4 8 1
135.28160533102593 34.80793681765418 1.8344836 4 8 1
135.28161024479328 34.80783111216009 1.8344836 4 8 1
135.28164687145173 34.80768796686009 1.8344836 4 8 1
135.28139439088685 34.80776116121131 1.8344836 4 8 1
135.28232182124887 34.807746922424805 1.8344836 4 8 1
135.09376235455863 34.63827773622182 0.3256583 4 0 1
135.09382001113974 34.63884318043848 0.3256583 4 0 1
135.09408509990172 34.63831913093641 0.3256583 4 0 1
135.09378203888718 34.638091161667 0.3256583 4 0 1
135.09384101789163 34.637973761816816 0.3256583 4 0 1
135.09412159486112 34.637974823497444 0.3256583 4 0 1
135.0943091967932 34.638159002165665 0.3256583 4 0 1
135.0899035455977 34.641771084456146 0.3256583 4 0 1
135.0894731251125 34.64157971180259 0.3256583 4 0 1
135.10492714536358 34.64929344674117 0.3256583 4 0 1
135.104937063102 34.64895223594988 0.3256583 4 0 1
135.1055941303715 34.648440609025776 0.3256583 4 0 1
135.104258288363 34.64617858156533 0.3256583 4 0 1
135.10402872893388 34.6458645822448 0.3256583 4 0 1
135.1016287044886 34.64366056443836 0.3256583 4 0 1
135.10154042850849 34.643183668817365 0.3256583 4 0 1
135.1019688445812 34.643259113893855 0.3256583 4 0 1
135.10007444417775 34.64323323886848 0.3256583 4 0 1
135.09997238399257 34.64310547750354 0.3256583 4 0 1
135.10022423645512 34.64318737466422 0.3256583 4 0 1
135.09842556991418 34.64205516444206 0.3256583 4 0 1
135.09904377618923 34.64198229764483 0.3256583 4 0 1
135.0996732148189 34.641359908829294 0.3256583 4 0 1
135.09994881121986 34.641579464647656 0.3256583 4 0 1
135.09927370353657 34.64201731389273 0.3256583 4 0 1
135.1119865584909 34.650882652827725 0.3256583 4 13 1
135.11215126559776 34.650943468478374 0.3256583 4 13 1
135.11037398532036 34.65860042437874 0.3256583 4 13 1
135.1100212749555 34.65814433241004 0.3256583 4 13 1
135.11077302711752 34.65819028097164 0.3256583 4 13 1
135.10941469838647 34.65934587446361 0.3256583 4 13 1
135.10993279544326 34.65943562393542 0.3256583 4 13 1
135.11133227565495 34.664871429521575 0.3256583 4 13 1
135.11363227149943 34.66525241728324 0.3256583 4 13 1
135.11446311461256 34.66450286644958 0.3256583 4 13 1
135.1147040814074 34.66579368601432 0.3256583 4 13 1
135.1145982763731 34.66570593119497 0.3256583 4 13 1
135.11457316789213 34.666188537080394 0.3256583 4 13 1
135.1138676829997 34.66636808398765 0.3256583 4 13 1
135.12628860924448 34.66577342084518 0.8337479 4 13 1
135.12468639589736 34.66430203603041 0.3256583 4 13 1
135.12465529571617 34.664531062948846 0.3256583 4 13 1
135.12468578239444 34.66443159785984 0.3256583 4 13 1
135.12255524090708 34.66869541204338 1.1404301 4 13 1
135.12944333129465 34.67071393579822 1.8483477 4 13 1
135.12975909692787 34.67356985683582 1.8483477 4 13 1
135.12984408610183 34.673720542214966 1.8483477 4 13 1
135.13157079315417 34.67253104346693 1.8483477 4 13 1
135.19303972022817 34.705267032851346 2.1924946 4 1 1
135.1932890395876 34.705273131648816 2.1924946 4 1 1
135.1937683660072 34.705553041985006 2.1924946 4 1 1
135.25745651267147 34.73204045839133 3.2163079 4 13 1
135.25859935919735 34.73327694560667 3.2163079 4 13 1
135.26080287230133 34.7359737103413 3.2163079 4 13 1
135.26089898853564 34.73645131075119 3.2163079 4 13 1
135.26114215089976 34.73638584501406 3.2163079 4 13 1
135.26192597050127 34.73583663585833 3.2163079 4 13 1
135.26234286329918 34.73611787931337 3.2163079 4 13 1
135.26229725416755 34.735163393066756 3.2163079 4 13 1
135.2655423564448 34.73178321856799 3.2163079 4 13 1
135.26787267771948 34.73140270112101 3.2163079 4 13 1
135.2709159997741 34.73476261277798 3.2163079 4 13 1
135.27239080651546 34.73692947315054 3.2163079 4 13 1
135.272486844747 34.73735783966603 3.2163079 4 13 1
135.26902724821758 34.73678079063591 3.2163079 4 13 1
135.27010012955085 34.736666260162224 3.2163079 4 13 1
135.27085896165624 34.739443535860886 3.2163079 4 13 1
135.28023346205342 34.74698299907622 3.2163079 4 13 1
135.28045028275125 34.74707820471895 3.2163079 4 13 1
135.28113145344415 34.74701454975793 3.2163079 4 13 1
135.2815222985725 34.74679009280086 3.2163079 4 13 1
135.28167351820684 34.74677469819768 3.2163079 4 13 1
135.28098463519194 34.74654567924741 3.2163079 4 13 1
135.2809890097973 34.74642299306598 3.2163079 4 13 1
135.28113301393313 34.746483647058064 3.2163079 4 13 1
135.28344804010263 34.7476777303626 3.2163079 4 13 1
135.28250725017776 34.74826672190325 3.2163079 4 13 1
135.28231905447143 34.748270663994724 3.2163079 4 13 1
135.28252981184303 34.749046806956095 3.2163079 4 13 1
135.28272062275252 34.74968546149468 3.2163079 4 13 1
135.28241102907378 34.74985874939426 3.2163079 4 13 1
135.28196448385427 34.746441917320034 3.2163079 4 13 1
135.28194286014391 34.74627321159199 3.2163079 4 13 1
135.28216901399216 34.7457640939969 3.2163079 4 13 1
135.2824300321953 34.745207983480775 3.2163079 4 13 1
135.28309222000678 34.74559753925621 3.2163079 4 13 1
135.28331481265997 34.74534635510318 3.2163079 4 13 1
135.2829367198675 34.74480930012583 3.2163079 4 13 1
135.28278621791085 34.744792614104796 3.2163079 4 13 1
135.28468492496944 34.74719788423754 3.2163079 4 13 1
135.2848644289129 34.74719853687394 3.2163079 4 13 1
135.28478872801773 34.74733069044295 3.2163079 4 13 1
135.28356099237985 34.74408037497541 3.2163079 4 13 1
135.28381423457057 34.74487664262264 3.2163079 4 13 1
135.28433706033562 34.744346122606245 3.2163079 4 13 1
135.2846062592364 34.744369210935375 3.2163079 4 13 1
135.28486290119434 34.744361294985154 3.2163079 4 13 1
135.28516332656594 34.74440540185859 3.2163079 4 13 1
135.28541402115266 34.744086937115654 3.2163079 4 13 1
135.28443411900764 34.74476646883872 3.2163079 4 13 1
135.2848048484638 34.74496217491886 3.2163079 4 13 1
135.28506684028255 34.74512142433672 3.2163079 4 13 1
135.28521195240617 34.74482487269077 3.2163079 4 13 1
135.2854082672321 34.744823407007125 3.2163079 4 13 1
135.28610084577608 34.744886591420475 3.2163079 4 13 1
135.28677446101275 34.74456022019371 3.2163079 4 13 1
135.28709148586637 34.74464462392837 3.2163079 4 13 1
135.28721601028096 34.74461073080231 3.2163079 4 13 1
135.2875168727379 34.74471068201974 3.2163079 4 13 1
135.28743729123778 34.74523517832715 3.2163079 4 13 1
135.29581700647438 34.74294199944701 2.1493726 4 13 1
135.2958547949765 34.74326251381312 2.1493726 4 13 1
135.2958372269883 34.74398050603797 2.1493726 4 13 1
135.29561493854146 34.744215186658906 2.1493726 4 13 1
135.29564387925598 34.744333365853095 2.1493726 4 13 1
135.29569152208188 34.74453759319295 2.1493726 4 13 1
135.2944538021773 34.74413307972606 2.1493726 4 13 1
135.29577362748802 34.7448129509844 2.1493726 4 13 1
135.29567520262003 34.74496405297801 2.1493726 4 13 1
135.29535142456004 34.74512066749039 2.1493726 4 13 1
135.29683767582617 34.7454629009058 2.1493726 4 13 1
135.29721693377633 34.74333981722164 2.1493726 4 13 1
135.29675457825903 34.74427466856003 2.1493726 4 13 1
135.295246382113 34.74536658091172 2.1493726 4 13 1
135.29504460116738 34.745638685803755 2.1493726 4 13 1
135.2949364598383 34.74578959664406 2.1493726 4 13 1
135.29528357849009 34.745984435647756 2.1493726 4 13 1
135.29393215196808 34.74566806305782 2.1493726 4 13 1
135.29363154699053 34.74555125537891 2.1493726 4 13 1
135.29499488186315 34.74656783394034 2.1493726 4 13 1
135.29480810118977 34.746655181541385 2.1493726 4 13 1
135.29245732292853 34.74547059581469 2.1493726 4 13 1
135.29338857298995 34.74625753532307 2.1493726 4 13 1
135.29314595818113 34.74648398911013 2.1493726 4 13 1
135.29347706364226 34.74698477996174 2.1493726 4 13 1
135.294444001514 34.747299257484116 2.1493726 4 13 1
135.29406641627574 34.747505730491454 2.1493726 4 13 1
135.2926062684926 34.7464873860021 2.1493726 4 13 1
135.2915591256553 34.74581161402258 3.2163079 4 13 1
135.29184668386796 34.74666391758848 2.1493726 4 13 1
135.29050221308117 34.744009578373294 3.2163079 4 13 1
135.28808363121468 34.74397760240387 3.2163079 4 13 1
135.2880922035133 34.74524033406645 3.2163079 4 13 1
135.29101956610947 34.74673401773758 3.2163079 4 13 1
135.28781564834313 34.74532180388481 3.2163079 4 13 1
135.28744275989823 34.74604024851553 3.2163079 4 13 1
135.2883670130679 34.74624852026554 3.2163079 4 13 1
135.28893300351237 34.746430784074775 3.2163079 4 13 1
135.28960818031007 34.747007391849394 3.2163079 4 13 1
135.2899808646081 34.74735918988392 3.2163079 4 13 1
135.29047314027702 34.74779310538802 3.2163079 4 13 1
135.2898205017788 34.74762583991432 3.2163079 4 13 1
135.28981675204966 34.747769920087194 3.2163079 4 13 1
135.28975837402908 34.747934931043815 3.2163079 4 13 1
135.28987264984963 34.74807239642935 3.2163079 4 13 1
135.29010279653008 34.74824366921922 3.2163079 4 13 1
135.29120263296358 34.74891643777812 3.2163079 4 13 1
135.29228472501788 34.74946177280302 2.1493726 4 13 1
135.292284681415 34.74878948921109 2.1493726 4 13 1
135.29179249865217 34.748726530539 2.1493726 4 13 1
135.29196995685513 34.749821914058536 2.1493726 4 13 1
135.29187587882208 34.7501198280879 2.7227623 4 5 1
135.29282269542102 34.75089138311888 2.7227623 4 5 1
135.2929685076126 34.75095195655814 2.7227623 4 5 1
135.29432790419744 34.75075663557193 2.7227623 4 5 1
135.2863927743024 34.7474523732182 3.2163079 4 13 1
135.28680205672788 34.747779949157255 3.2163079 4 13 1
135.28743569942952 34.74798008158803 3.2163079 4 13 1
135.28792131788762 34.74801558250912 3.2163079 4 13 1
135.28785538254806 34.74810786475456 3.2163079 4 13 1
135.28624553585882 34.74778388662472 3.2163079 4 13 1
135.2876974941057 34.74906459335968 3.2163079 4 13 1
135.28797373257427 34.74922369133702 3.2163079 4 13 1
135.2880052017446 34.749519108668785 3.2163079 4 13 1
135.28861303645854 34.74977755650483 3.2163079 4 13 1
135.28695042509634 34.74909109404639 3.2163079 4 13 1
135.28528650885676 34.74837327721362 3.2163079 4 13 1
135.28519447073265 34.748336548648375 3.2163079 4 13 1
135.2851138597642 34.74835888891049 3.2163079 4 13 1
135.28589642730867 34.74931653352164 3.2163079 4 13 1
135.2868741864717 34.74968016971215 3.2163079 4 13 1
135.28673879661937 34.74989470587713 3.2163079 4 13 1
135.2865572200396 34.74985055977208 3.2163079 4 13 1
135.2861882935428 34.749872328332245 3.2163079 4 13 1
135.28744329541934 34.75002297093182 1.9382412 4 5 1
135.28847896292942 34.75056799586444 1.9382412 4 5 1
135.28891580133708 34.75047368945233 1.9382412 4 5 1
135.28944538242575 34.75036901566073 1.9382412 4 5 1
135.28955846285632 34.75052779752606 1.9382412 4 5 1
135.28993543410465 34.750512947095096 1.9382412 4 5 1
135.29029403048435 34.750580394319954 1.9382412 4 5 1
135.2896046635256 34.75089492178033 1.9382412 4 5 1
135.2911505941716 34.75063956677057 1.9382412 4 5 1
135.29047036226035 34.75079988684739 1.9382412 4 5 1
135.29020766924407 34.751321498173006 1.9382412 4 5 1
135.29011480051668 34.75147777804721 1.9382412 4 5 1
135.29010138574026 34.75167660443911 1.9382412 4 5 1
135.29227871885493 34.752817349784905 2.7227623 4 5 1
135.2921697631845 34.752941181982244 2.7227623 4 5 1
135.29165992763532 34.753040506449025 1.9382412 4 5 1
135.2916801850649 34.753191731385265 1.9382412 4 5 1
135.29119523739837 34.753542713345595 1.9382412 4 5 1
135.29189242316525 34.75438926254681 2.7227623 4 5 1
135.28958666721283 34.75187844950978 1.9382412 4 5 1
135.28939154928636 34.75191993739815 1.9382412 4 5 1
135.28907392226648 34.751763225947656 1.9382412 4 5 1
135.28909237476702 34.75229535639997 1.9382412 4 5 1
135.28823300145837 34.751134135928325 1.9382412 4 5 1
135.29092378687153 34.75416328119194 1.9382412 4 5 1
135.28973494072795 34.753544705498854 1.9382412 4 5 1
135.28877871007114 34.75268341335003 1.9382412 4 5 1
135.28878739018074 34.75239723269741 1.9382412 4 5 1
135.28847276740436 34.752698865537376 1.9382412 4 5 1
135.28644174879764 34.75206819470926 1.9382412 4 5 1
135.28529255101188 34.75129068131066 1.9382412 4 5 1
135.2871473526966 34.75079203458149 1.9382412 4 5 1
135.28685234833466 34.750434231050235 1.9382412 4 5 1
135.28685224098012 34.75080050750469 1.9382412 4 5 1
135.2866937157021 34.75074650059706 1.9382412 4 5 1
135.28642739771877 34.75053041936448 1.9382412 4 5 1
135.28505569266633 34.74952052599854 3.2163079 4 13 1
135.28453635291865 34.74998383676291 3.2163079 4 13 1
135.28464476584088 34.75009888709472 1.9382412 4 5 1
135.28509398910745 34.75122278918629 1.9382412 4 5 1
135.28366295947677 34.75004065718789 1.9382412 4 5 1
135.28399424601267 34.75021050041792 1.9382412 4 5 1
135.2843890705216 34.74944860907035 3.2163079 4 13 1
135.29295997676644 34.75475827212942 2.7227623 4 5 1
135.29281687207487 34.754060852754215 2.7227623 4 5 1
135.29525384789395 34.753608043893145 2.7227623 4 5 1
135.29581670326766 34.75425091775731 2.7227623 4 5 1
135.29747587307165 34.754630537647884 2.7227623 4 5 1
135.29766299397386 34.75520494947659 2.7227623 4 5 1
135.29915879793057 34.75568159018488 2.7227623 4 5 1
135.2995452493674 34.75463539245751 2.7227623 4 5 1
135.3011067157208 34.75477379050335 2.7227623 4 13 1
135.30140693030015 34.75432497372286 2.7227623 4 13 1
135.29989442463952 34.75377566616399 2.7227623 4 5 1
135.29824209880226 34.753553701581986 2.7227623 4 5 1
135.29831567092444 34.753820844941465 2.7227623 4 5 1
135.30049310791594 34.75788310181985 2.7227623 4 13 1
135.3035424280832 34.75476632457593 2.7227623 4 13 1
135.3040054392829 34.755357870221054 2.7227623 4 13 1
135.3041998678749 34.754685391975364 2.7227623 4 13 1
135.30384784371805 34.75324904583459 2.7227623 4 13 1
135.3041690987464 34.75315642551958 2.7227623 4 13 1
135.3034461863749 34.75309578448161 2.7227623 4 13 1
135.30352280893734 34.753419680901246 2.7227623 4 13 1
135.30818848753023 34.761783998034495 2.7227623 4 13 1
135.30839206285273 34.76151715881514 2.7227623 4 13 1
135.30817298356814 34.7615559099824 2.7227623 4 13 1
135.30970599781733 34.761856924169805 2.7227623 4 13 1
135.11003921867 34.66588127350538 0.3256583 4 13 1
135.11074145274475 34.66670387275597 1.1404301 4 13 1
135.1118881228915 34.66604332654633 0.3256583 4 13 1
135.1224928895517 34.673023047744046 1.1404301 4 13 1
135.1234476034445 34.674625718336216 1.1404301 4 13 1
135.12439939892914 34.67527314118474 1.1404301 4 13 1
135.1273451134674 34.67352876196696 1.8483477 4 13 1
135.12449245785263 34.677200172916784 1.1404301 4 13 1
135.1178091609152 34.677222321572295 1.1404301 4 13 1
135.11650137917968 34.6892369665573 1.1404301 4 13 1
135.12140021316472 34.69021622717029 1.1404301 4 13 1
135.12171425955464 34.690118444498715 1.1404301 4 13 1
135.1221378133338 34.690686086592095 1.1404301 4 13 1
135.12151086062067 34.68955909214805 1.1404301 4 13 1
135.12203371233994 34.68926030743027 1.1404301 4 13 1
135.12269528801622 34.689584974408824 1.1404301 4 13 1
135.12250608453937 34.68974093819138 1.1404301 4 13 1
135.12197979309897 34.68976210110263 1.1404301 4 13 1
135.1269157166757 34.68447989755796 1.8483477 4 13 1
135.12949910773924 34.68588552386332 1.8483477 4 13 1
135.12981761449385 34.685661298622186 1.8483477 4 13 1
135.12989963149943 34.68519323546296 1.8483477 4 13 1
135.1312243255743 34.68555833306477 1.8483477 4 13 1
135.13166420313215 34.68632124625969 1.8483477 4 13 1
135.13049872179354 34.68401775761797 1.8483477 4 13 1
135.13039092688734 34.684174924727884 1.8483477 4 13 1
135.13184433285846 34.68400634217352 1.8483477 4 13 1
135.12417887304807 34.68214646219825 1.1404301 4 13 1
135.1249182277115 34.6819552533496 1.1404301 4 13 1
135.1250298794586 34.68215053478636 1.8483477 4 13 1
135.12461349404245 34.68217161198351 1.1404301 4 13 1
135.12868017958556 34.67659290997553 1.8483477 4 13 1
135.129981426625 34.676989113160616 1.8483477 4 13 1
135.12877867886834 34.67814286157987 1.8483477 4 13 1
135.1325454747602 34.678790376196694 1.8483477 4 13 1
135.13265294933916 34.678991187988125 1.8483477 4 13 1
135.13266239344384 34.67885329952956 1.8483477 4 13 1
135.14166166468632 34.69422619666046 1.8483477 4 13 1
135.14078032640742 34.69280963442188 1.8483477 4 13 1
135.140152264364 34.69854051735042 1.8483477 4 13 1
135.1395008329053 34.69862114647759 1.8483477 4 13 1
135.1389944376281 34.69854733345342 1.8483477 4 13 1
135.1377156593525 34.69872077061622 1.8483477 4 13 1
135.1280658055535 34.70014789865093 1.8483477 4 13 1
135.12780051235694 34.70008927499386 1.8483477 4 13 1
135.13613627331185 34.709976436574756 1.4485763 4 13 1
135.13993645149418 34.710290436043735 1.4485763 4 13 1
135.1407454590506 34.71088709106406 1.4485763 4 13 1
135.14512803331368 34.70775106386624 1.8483477 4 13 1
135.16093892624664 34.703912043018406 1.8483477 4 1 1
135.1606910036609 34.70378982981075 1.8483477 4 1 1
135.14758488778116 34.71070104870979 1.4485763 4 13 1
135.1435744215336 34.713230472781355 1.4485763 4 13 1
135.16156723964474 34.72134569889802 1.4485763 4 1 1
135.15870587352595 34.71424627121718 1.4485763 4 1 1
135.17948146000703 34.70435551635501 2.1924946 4 1 1
135.17990417074571 34.70449414777329 2.1924946 4 1 1
135.17936154103396 34.7040799168219 2.1924946 4 1 1
135.1688212586195 34.71679224465777 2.3768601 4 1 1
135.17138880562553 34.71920661938325 2.3768601 4 1 1
135.1540810767502 34.74256736941666 1.4485763 4 1 1
135.2429325270318 34.779596159462464 0.47891423 4 5 1
135.19129981879573 34.73278084348131 2.3768601 4 1 1
135.25381844138295 34.74534748104392 3.2163079 4 13 1
135.25352119703322 34.745257561063504 3.2163079 4 13 1
135.2578161833626 34.780518428082466 1.9382412 4 5 1
135.11558354374333 34.66674776436539 1.1404301 4 13 1
135.11545593141847 34.66691904797811 1.1404301 4 13 1
135.26197622183724 34.73555144097093 3.2163079 4 13 1
135.2909853055028 34.7507241168177 1.9382412 4 5 1
135.16290775415277 34.693446123473535 1.8483477 4 13 1
135.17611133786403 34.74668032543793 2.3768601 4 1 1
135.21382444832997 34.762322546485564 0.47891423 4 5 1
135.21380133986287 34.76219875058018 0.47891423 4 5 1
135.20937253748878 34.76779399242829 0.47891423 4 5 1
135.20927747918978 34.767665123683614 0.47891423 4 5 1
135.25512800013345 34.74409229603591 3.2163079 4 13 1
135.25179154512134 34.7446312637972 3.2163079 4 13 1
135.24953749968032 34.75876460984169 0.47891423 4 5 1
135.26098765636291 34.79496688419106 1.8344836 4 5 1
135.28204773634874 34.77517758208882 1.9382412 4 5 1
135.2819886974769 34.775118575535885 1.9382412 4 5 1
135.29615562399715 34.805495887812995 1.6901203 4 8 1
135.2932827284121 34.79868419443065 1.6901203 4 5 1
135.30374123837476 34.8028516930944 1.6901203 4 9 1
135.21394171429975 34.76245898007789 0.47891423 4 5 1
135.0935567974501 34.638547662218464 0.3256583 4 0 1
135.24212036541485 34.73876109796332 3.4629397 4 13 1
135.2422009941844 34.73890029511149 3.4629397 4 13 1
135.24171006442165 34.73898688660968 3.4629397 4 13 1
135.11505472760436 34.666542942200685 0.3256583 4 13 1
135.11511054895763 34.666657151851076 0.3256583 4 13 1
135.23438628411955 34.79992564992884 2.2946413 4 5 1
135.2111976145341 34.76066545475707 0.47891423 4 5 1
135.21098620407452 34.76098564246828 0.47891423 4 5 1
135.30094360095754 34.77259597345727 2.7227623 4 13 1
135.2726681451832 34.7973378566974 1.8344836 4 5 1
135.23808771797061 34.751954769372105 0.47891423 4 5 1
135.12262342842948 34.690162109443335 1.1404301 4 13 1
135.12261082515215 34.690286412565506 1.1404301 4 13 1
135.13259804694826 34.67246115658839 1.8483477 4 13 1
135.1323672038312 34.67249145670618 1.8483477 4 13 1
135.28236508272767 34.75034927732294 1.9382412 4 5 1
135.29063180441668 34.75227388416002 1.9382412 4 5 1
135.24635278215976 34.74538398927729 3.4629397 4 13 1
135.2439198783374 34.74689338510627 3.4629397 4 13 1
135.25700511567848 34.76443053933577 1.9382412 4 5 1
135.26705098147315 34.771229576063405 1.9382412 4 5 1
135.27058643632878 34.78005774470184 1.9382412 4 5 1
135.18889506623276 34.74168979946654 2.3768601 4 1 1
135.23996712980284 34.736646315544625 3.4629397 4 13 1
135.30292404126797 34.79916315094236 1.6901203 4 13 1
135.211842096093 34.72574225025865 3.4629397 4 13 1
135.0994644360832 34.641458888056285 0.3256583 4 0 1
135.1318497223049 34.67529420419368 1.8483477 4 13 1
135.23351287330252 34.77482910143184 0.47891423 4 5 1
135.23524215156678 34.794007661346335 2.2946413 4 5 1
135.23219278243846 34.801306509219664 2.2946413 4 13 1
135.23218272778703 34.8010286229805 2.2946413 4 13 1
135.2319945589786 34.800924435731865 2.2946413 4 13 1
135.23198646169493 34.80178237329176 2.2946413 4 13 1
135.27607141955525 34.7948118177709 1.8344836 4 5 1
135.23094515165218 34.79921796358994 2.2946413 4 5 1
135.24396377218793 34.749023147966696 3.4629397 4 13 1
135.2968869599435 34.80577763000587 1.6901203 4 8 1
135.25146137860028 34.74355832200702 3.2163079 4 13 1
135.25208875998973 34.74369682472511 3.2163079 4 13 1
135.25408762958085 34.746342246646314 3.2163079 4 13 1
135.25613620785307 34.74174449076575 3.2163079 4 13 1
135.25078841865084 34.78902637472898 1.9382412 4 5 1
135.25129762478633 34.78877775512291 1.9382412 4 5 1
135.26792328254697 34.77510858797991 1.9382412 4 5 1
135.2600797721749 34.79022712867443 1.9382412 4 5 1
135.28918472510557 34.790617285485666 1.9382412 4 5 1
135.2901488610604 34.757938200875294 1.9382412 4 5 1
135.29027252063955 34.75765423694141 1.9382412 4 5 1
135.24387240477662 34.795660513679536 2.2946413 4 5 1
135.24396251498797 34.79398373554773 2.2946413 4 5 1
135.2423413367572 34.790488239024675 0.47891423 4 5 1
135.24244241616134 34.79034548193758 0.47891423 4 5 1
135.10382447471414 34.645521615088896 0.3256583 4 0 1
135.10456737929653 34.645068361041986 0.3256583 4 0 1
135.2900719888338 34.746549953748875 3.2163079 4 13 1
135.2898761636113 34.746780359393725 3.2163079 4 13 1
135.289970000329 34.74678070139974 3.2163079 4 13 1
135.29118693161573 34.75185793548646 1.9382412 4 5 1
135.29120535166243 34.75197767950431 1.9382412 4 5 1
135.3092791673123 34.7619934893604 2.7227623 4 13 1
135.23278148329558 34.73912468740191 3.4629397 4 13 1
135.18708847429696 34.72555442523412 2.3768601 4 1 1
135.25427549257432 34.739230994946496 3.2163079 4 13 1
135.25933479925897 34.73308061168163 3.2163079 4 13 1
135.12937379609843 34.67679042572324 1.8483477 4 13 1
135.12969748930672 34.676916201795166 1.8483477 4 13 1
135.15613312149344 34.69001383895168 1.8483477 4 13 1
135.1655157466404 34.701433474139144 1.8483477 4 1 1
135.17786992667945 34.7260426323977 2.3768601 4 1 1
135.23678299299903 34.73847086009182 3.4629397 4 13 1
135.23668157182064 34.73811022125836 3.4629397 4 13 1
135.23668347974484 34.73777864255952 3.4629397 4 13 1
135.23678235017837 34.73754330796249 3.4629397 4 13 1
135.23782309872047 34.73840223293098 3.4629397 4 13 1
135.23897545508893 34.73855212755194 3.4629397 4 13 1
135.23200261693088 34.73702595644944 3.4629397 4 13 1
135.23178392550244 34.7367868756675 3.4629397 4 13 1
135.25350084287072 34.74927345292444 3.2163079 4 13 1
135.25362317107036 34.74910235675786 3.2163079 4 13 1
135.25331122334856 34.747644895593886 3.2163079 4 13 1
135.25358832039905 34.74773800769229 3.2163079 4 13 1
135.28706173525222 34.759388100526486 1.9382412 4 5 1
135.2872044685123 34.75945093562956 1.9382412 4 5 1
135.28734889460364 34.759415316162325 1.9382412 4 5 1
135.28795035284097 34.75941190939793 1.9382412 4 5 1
135.26180811881244 34.78956446012839 1.9382412 4 5 1
135.26205216075164 34.790013992924145 1.9382412 4 5 1
135.28834998424017 34.759644432163284 1.9382412 4 5 1
135.23248631647218 34.7910924279686 0.47891423 4 5 1
135.23216583435902 34.79108502158201 0.47891423 4 5 1
135.09312217745415 34.63952435404899 0.3256583 4 0 1
135.09347772736592 34.63883080895237 0.3256583 4 0 1
135.09319293647073 34.63909660470205 0.3256583 4 0 1
135.1023353455779 34.644205105787094 0.3256583 4 0 1
135.1022429749454 34.64428649537121 0.3256583 4 0 1
135.23696840244872 34.73832369729327 3.4629397 4 13 1
135.08899266240599 34.6377965464775 0.3256583 4 0 0
135.08910318839372 34.64004460956422 0.3256583 4 0 0
135.089213726624 34.64229267151164 0.3256583 4 0 0
135.08932427709817 34.64454073231969 0.3256583 4 0 0
135.08943483981753 34.64678879198829 0.3256583 4 0 0
135.08954541478343 34.649036850517405 0.3256583 4 0 0
135.08965600199716 34.65128490790694 0.3256583 4 13 0
135.08976660146007 34.65353296415685 0.3256583 4 13 0
135.08987721317348 34.65578101926705 0.3256583 4 13 0
135.08998783713872 34.658029073237486 0.3256583 4 13 0
135.0900984733571 34.66027712606808 0.3256583 4 13 0
135.09020912183 34.66252517775878 0.3256583 4 13 0
135.09031978255868 34.664773228309514 0.3256583 4 13 0
135.09043045554452 34.66702127772021 1.1404301 4 13 0
135.09054114078882 34.6692693259908 1.1404301 4 13 0
135.09065183829287 34.671517373121226 1.1404301 4 13 0
135.09076254805808 34.67376541911141 1.1404301 4 13 0
135.09087327008575 34.6760134639613 1.1404301 4 13 0
135.0909840043772 34.67826150767082 1.1404301 4 13 0
135.09109475093373 34.680509550239904 1.1404301 4 13 0
135.0912055097567 34.682757591668484 1.1404301 4 13 0
135.09131628084745 34.6850056319565 1.1404301 4 13 0
135.0914270642073 34.68725367110388 1.1404301 4 13 0
135.09153785983756 34.689501709110566 1.1404301 4 13 0
135.09164866773955 34.69174974597648 1.1404301 4 13 0
135.09175948791466 34.69399778170156 1.1404301 4 13 0
135.09187032036417 34.69624581628573 1.1404301 4 13 0
135.09198116508944 34.69849384972895 1.1404301 4 13 0
135.09209202209178 34.70074188203112 1.1404301 4 9 0
135.09220289137252 34.7029899131922 1.1404301 4 9 0
135.092313772933 34.705237943212104 1.1404301 4 9 0
135.09242466677455 34.70748597209078 1.1404301 4 9 0
135.09253557289853 34.70973399982815 1.1156926 4 9 0
135.0926464913062 34.711982026424174 1.1156926 4 9 0
135.09275742199895 34.714230051878744 1.1156926 4 9 0
135.09286836497813 34.71647807619182 1.1156926 4 9 0
135.092979320245 34.71872609936333 1.1156926 4 9 0
135.09309028780095 34.720974121393205 1.1156926 4 9 0
135.09320126764732 34.72322214228138 1.1156926 4 9 0
135.0933122597854 34.72547016202778 1.1156926 4 9 0
135.0934232642165 34.72771818063236 1.1156926 4 9 0
135.09353428094207 34.72996619809504 1.1156926 4 9 0
135.09364530996334 34.73221421441575 1.1156926 4 9 0
135.0937563512817 34.73446222959443 1.1156926 4 9 0
135.09386740489845 34.736710243631 1.1156926 4 9 0
135.09397847081493 34.73895825652541 1.1156926 4 9 0
135.09408954903247 34.74120626827759 1.1156926 4 9 0
135.09420063955244 34.743454278887455 1.1156926 4 9 0
135.09431174237616 34.74570228835497 1.1156926 4 9 0
135.09442285750492 34.74795029668005 1.1156926 4 9 0
135.0945339849401 34.750198303862625 1.0741788 4 9 0
135.09464512468307 34.75244630990264 1.0741788 4 9 0
135.0947562767351 34.75469431480002 1.0741788 4 9 0
135.09486744109756 34.7569423185547 1.0741788 4 9 0
135.09497861777174 34.759190321166614 1.0741788 4 9 0
135.09508980675906 34.761438322635684 1.0741788 4 9 0
135.09520100806083 34.76368632296187 1.0741788 4 9 0
135.0953122216783 34.765934322145085 1.0741788 4 9 0
135.09542344761294 34.76818232018527 1.0741788 4 9 0
135.09553468586603 34.770430317082344 1.0741788 4 9 0
135.09564593643887 34.77267831283627 1.0741788 4 9 0
135.09575719933287 34.774926307446954 1.0741788 4 9 0
135.0958684745493 34.77717430091434 1.0741788 4 9 0
135.09597976208954 34.77942229323836 1.0741788 4 9 0
135.09609106195495 34.781670284418944 1.0741788 4 9 0
135.0962023741468 34.783918274456035 1.0741788 4 9 0
135.09631369866648 34.78616626334956 1.0741788 4 9 0
135.09642503551532 34.78841425109945 1.0741788 4 9 0
135.09653638469464 34.79066223770564 1.0741788 4 9 0
135.09664774620583 34.792910223168064 1.0403003 4 9 0
135.09675912005022 34.79515820748665 1.0403003 4 9 0
135.0968705062291 34.79740619066135 1.0403003 4 9 0
135.09698190474384 34.79965417269207 1.0403003 4 9 0
135.09709331559577 34.80190215357877 1.0403003 4 8 0
135.09720473878627 34.804150133321365 1.0403003 4 8 0
135.09731617431663 34.8063981119198 1.0403003 4 8 0
135.09742762218826 34.808646089374 1.0403003 4 8 0
135.09753908240242 34.81089406568389 1.0403003 4 8 0
135.09765055496052 34.81314204084943 1.0403003 4 8 0
135.09776203986385 34.81539001487053 1.0403003 4 8 0
135.0978735371138 34.817637987747126 1.0403003 4 8 0
135.09798504671167 34.819885959479166 1.0403003 4 8 0
135.09809656865883 34.82213393006657 1.0403003 4 8 0
135.09820810295662 34.82438189950927 1.0403003 4 8 0
135.0983196496064 34.82662986780721 1.0403003 4 8 0
135.09171258645247 34.63770516990051 0.3256583 4 0 0
135.09182318545967 34.63995322536542 0.3256583 4 0 0
135.09193379671743 34.64220127969064 0.3256583 4 0 0
135.09204442022713 34.64444933287607 0.3256583 4 0 0
135.09215505599005 34.646697384921666 0.3256583 4 0 0
135.09226570400756 34.64894543582737 0.3256583 4 0 0
135.092376364281 34.65119348559308 0.3256583 4 13 0
135.09248703681163 34.65344153421878 0.3256583 4 13 0
135.09259772160084 34.65568958170435 0.3256583 4 13 0
135.09270841864992 34.65793762804976 0.3256583 4 13 0
135.0928191279602 34.66018567325492 0.3256583 4 13 0
135.09292984953305 34.662433717319786 0.3256583 4 13 0
135.09304058336974 34.66468176024428 0.3256583 4 13 0
135.09315132947162 34.66692980202833 1.1404301 4 13 0
135.09326208784003 34.66917784267188 1.1404301 4 13 0
135.0933728584763 34.67142588217485 1.1404301 4 13 0
135.09348364138174 34.67367392053719 1.1404301 4 13 0
135.09359443655768 34.675921957758824 1.1404301 4 13 0
135.0937052440055 34.67816999383968 1.1404301 4 13 0
135.09381606372645 34.680418028779705 1.1404301 4 13 0
135.09392689572192 34.68266606257881 1.1404301 4 13 0
135.0940377399932 34.684914095236955 1.1404301 4 13 0
135.09414859654166 34.68716212675406 1.1404301 4 13 0
135.0942594653686 34.68941015713007 1.1404301 4 13 0
135.09437034647536 34.6916581863649 1.1404301 4 13 0
135.09448123986328 34.693906214458494 1.1404301 4 13 0
135.09459214553365 34.696154241410774 1.1404301 4 13 0
135.09470306348788 34.69840226722169 1.1404301 4 13 0
135.09481399372726 34.70065029189116 1.1404301 4 9 0
135.09492493625308 34.70289831541913 1.1404301 4 9 0
135.09503589106671 34.70514633780553 1.1404301 4 9 0
135.0951468581695 34.70739435905029 1.1404301 4 9 0
135.09525783756277 34.70964237915335 1.1156926 4 9 0
135.09536882924783 34.71189039811463 1.1156926 4 9 0
135.09547983322605 34.71413841593408 1.1156926 4 9 0
135.09559084949876 34.71638643261162 1.1156926 4 9 0
135.09570187806727 34.7186344481472 1.1156926 4 9 0
135.0958129189329 34.72088246254073 1.1156926 4 9 0
135.095923972097 34.72313047579215 1.1156926 4 9 0
135.09603503756094 34.7253784879014 1.1156926 4 9 0
135.096146115326 34.727626498868425 1.1156926 4 9 0
