131.10167976290245 32.85606764588109 2.146804 2 4 1
131.05504966263587 32.85667258543535 2.486633 2 12 0
131.08213560725366 32.85738342826459 2.486633 2 12 0
131.09499258275335 32.858977687306684 2.146804 2 12 1
131.09878084880893 32.86026163918476 2.146804 2 12 1
131.0938102419217 32.85897248151873 2.146804 2 12 1
131.1249062799074 32.8528506511099 2.146804 2 4 1
131.04293532249457 32.849637574233114 2.486633 2 8 1
131.04260333362322 32.8488178607914 2.486633 2 8 1
131.0418607679781 32.8528392634552 2.486633 2 8 1
131.04038974762133 32.85234274735061 0.84038436 2 8 1
131.0426677910654 32.85490053007602 2.486633 2 8 1
131.04146135738253 32.860838684848666 0.84038436 2 8 1
131.04286737290025 32.8609280580578 2.486633 2 8 1
131.04586295734967 32.860031399155 2.486633 2 8 1
131.0409328777342 32.849853237649434 0.84038436 2 8 1
131.03855044347526 32.850196819040114 0.84038436 2 8 0
131.03806863658414 32.85255525268315 0.84038436 2 8 1
131.0367096073417 32.85247201819613 0.84038436 2 8 1
131.03508284296564 32.85692662085652 0.84038436 2 8 1
131.03599115287736 32.852738666905445 0.84038436 2 8 1
131.03749484878256 32.8571089244997 0.84038436 2 8 1
131.03689778127782 32.857759986772635 0.84038436 2 8 1
131.04069674393156 32.85401382351119 0.84038436 2 8 1
131.03380730744306 32.85305724062165 0.84038436 2 8 1
131.0335168433178 32.85846136612669 0.84038436 2 8 1
131.0405885889636 32.86076412415755 0.84038436 2 8 1
131.03025955969125 32.86013689176638 0.84038436 2 8 1
131.0325171487963 32.86046335297199 0.84038436 2 8 1
131.02638631739165 32.86246633009776 0.84038436 2 8 1
131.01472877998523 32.873210068676705 0.84038436 2 8 1
131.0149558546413 32.87238556724563 0.84038436 2 8 1
131.01985718803382 32.86887688756637 0.84038436 2 8 1
131.01441926410584 32.86893906375812 0.84038436 2 8 1
130.9908842088459 32.868764947698146 1.7560138 1 5 1
130.9874729556974 32.86763710658173 1.7560138 1 5 1
130.98575000140082 32.86817850523551 1.7560138 1 5 1
130.98729100983883 32.866669433325086 1.7560138 1 5 1
130.98172444712648 32.86699639897507 1.7560138 1 5 1
130.98336911029554 32.86807976109091 1.7560138 1 5 1
130.9832436239789 32.865552280450814 1.7560138 1 5 1
130.9831018068435 32.86518743430598 1.7560138 1 5 1
130.9812664246901 32.864229283089664 1.7560138 1 5 1
130.9802889040553 32.86234823983612 1.7560138 1 5 1
130.97962848315686 32.86674733068006 1.7560138 1 5 0
130.97890063716503 32.864562229627204 1.7560138 1 5 1
130.97846959611053 32.86390495066155 1.7560138 1 5 1
130.97813430712893 32.867201399826584 1.7560138 1 5 1
130.9761020112734 32.864527796902934 1.7560138 1 5 1
130.97521386548763 32.86449767588778 1.7560138 1 5 1
130.9739585359051 32.86652013433372 1.7560138 1 5 1
130.9759745254969 32.863833238182316 1.7560138 1 5 1
130.97338923545794 32.8643752697743 1.7560138 1 5 1
130.96206338808716 32.858220852037114 1.7560138 1 5 1
130.9622030247411 32.858612927119786 1.7560138 1 5 1
130.95697506152288 32.86339222355276 3.068189 1 5 1
130.9821572440162 32.847880025839935 1.7560138 1 5 1
130.98293131936663 32.85107024372954 1.7560138 1 5 1
130.98665368199124 32.85184774417491 1.7560138 1 5 1
131.00110836655466 32.82019738940491 1.9972256 2 8 1
130.9826720485182 32.85615292045342 1.7560138 1 5 1
131.0189585412388 32.8543735592776 0.84038436 2 8 1
130.97283574963257 32.85932372980757 1.7560138 1 5 1
130.96187452602052 32.86416234657881 1.7560138 1 5 1
130.96022054577946 32.86848275397539 1.7560138 1 5 1
130.95704107984758 32.868755488751795 3.068189 1 5 1
130.99305449974958 32.83244630517492 2.1142929 1 5 1
131.01476537648685 32.83542515249924 0.84038436 2 8 1
131.00975405451945 32.84051880201648 0.84038436 2 8 1
131.01005230063856 32.84022013835085 0.84038436 2 8 1
131.01025534755436 32.84010397874183 0.84038436 2 8 1
131.0380372226653 32.85134310610078 0.84038436 2 8 1
131.03093861551113 32.85803718204151 0.84038436 2 8 1
130.98565814926394 32.8855114615062 1.4842502 1 5 1
130.9812077365824 32.883153260717 1.4842502 1 5 1
131.00493384694505 32.88706192592343 1.4673427 2 8 1
131.00698445638466 32.88812545037844 1.4673427 2 8 1
130.98376641625717 32.89904953657396 1.4842502 1 5 1
130.9830467394952 32.90281205596625 1.4842502 1 5 1
130.97732262842496 32.8710782308792 1.7560138 1 5 1
130.97783924665003 32.874023820741456 1.7560138 1 5 1
130.97645229262287 32.8700030893585 1.7560138 1 5 1
130.97583182114064 32.8741311758579 1.7560138 1 5 1
130.97456254686094 32.87472747383049 1.7560138 1 5 1
130.97176953128073 32.882350299783674 1.4842502 1 5 1
130.97494671425278 32.88419097016465 1.4842502 1 5 1
130.9878010712976 32.87097558055123 1.7560138 1 5 1
130.98934035870045 32.87123541174648 1.7560138 1 5 1
130.98960496122723 32.872278232066755 1.7560138 1 5 1
130.98690892584196 32.87277394621369 1.7560138 1 5 1
130.98354001921496 32.90070145704252 1.4842502 1 5 1
130.9598744439354 32.88493563848002 1.4842502 1 5 1
130.96147425129442 32.88537252903511 1.4842502 1 5 1
130.960685665465 32.885749494261574 1.4842502 1 5 1
130.96579698539236 32.88633517469743 1.4842502 1 5 1
130.96550434852557 32.88689675120004 1.4842502 1 5 1
131.0031198805061 32.88476724718792 1.4673427 2 8 1
130.98738330567033 32.888641605551804 1.4842502 1 5 1
130.98203930463183 32.87311788972445 1.7560138 1 5 1
130.98510874059426 32.877578472192006 1.4842502 1 5 1
130.97582101199723 32.89253841692134 1.4842502 1 5 1
130.97857823571252 32.893769137625114 1.4842502 1 5 1
130.9795854254829 32.89584984270172 1.4842502 1 5 1
130.97924972629897 32.89569017776792 1.4842502 1 5 1
130.97900145283694 32.89545169862318 1.4842502 1 5 1
130.97872307701655 32.895574479341406 1.4842502 1 5 1
130.97834117120325 32.8992560244688 1.4842502 1 5 1
130.97877951405812 32.898341869739724 1.4842502 1 5 0
130.97934014912195 32.89889982772741 1.4842502 1 5 0
130.98118151970888 32.9016234274335 1.4842502 1 5 1
130.97645327739784 32.892832882413366 1.4842502 1 5 1
130.97960941981833 32.893662804289754 1.4842502 1 5 1
130.9792177256253 32.894756884182314 1.4842502 1 5 1
130.97829423376027 32.89480870152736 1.4842502 1 5 1
130.97868134936522 32.895206447819234 1.4842502 1 5 1
130.97795225964794 32.89705407461866 1.4842502 1 5 1
130.9783346028758 32.897050265584014 1.4842502 1 5 1
130.97845246160034 32.896783126472116 1.4842502 1 5 1
130.9789248729628 32.897133616331374 1.4842502 1 5 1
130.9786806132286 32.89656793393604 1.4842502 1 5 1
130.97755497045924 32.89258905114794 1.4842502 1 5 1
130.99298290740572 32.89702244060821 1.4842502 1 5 1
131.01925328002326 32.8932807789428 1.4673427 2 8 1
130.98907404408575 32.881528518700215 1.4842502 1 5 1
130.98345355953236 32.90010410939932 1.4842502 1 5 1
130.98771429698968 32.88735669953843 1.4842502 1 5 1
130.9895378630694 32.88187996980404 1.4842502 1 5 1
130.98964825196893 32.882298648623106 1.4842502 1 5 1
130.98859232152023 32.88092088023059 1.4842502 1 5 1
130.98793566013265 32.8791389897845 1.4842502 1 5 0
130.98776800222396 32.87733871723715 1.4842502 1 5 1
130.99307246463522 32.87866123012593 1.4842502 1 5 1
130.9894607459506 32.87807655240853 1.4842502 1 5 1
130.98680298911404 32.87664209221822 1.4842502 1 5 1
130.98801487904106 32.87540644859714 1.4842502 1 5 1
130.98058593358417 32.87272904774031 1.7560138 1 5 1
130.98954986605537 32.887195168338486 1.4842502 1 5 1
130.98912880807273 32.8845477320149 1.4842502 1 5 1
131.00542202661518 32.88181456577539 1.4673427 2 8 1
131.00138912580073 32.89006875103822 1.4673427 2 8 1
131.02936766110278 32.90906865174992 1.4673427 2 12 1
131.0258519895044 32.90944289176283 1.4673427 2 12 1
131.02619438995322 32.911047758860256 1.4673427 2 12 1
131.0271197803048 32.909756815510626 1.4673427 2 12 1
131.0892225878266 32.908528377906386 1.1526855 2 12 1
131.08880783639063 32.911652299908866 1.1526855 2 12 1
131.08858316694847 32.91066158117523 1.1526855 2 12 1
131.09162317379906 32.91061369213773 1.1526855 2 12 1
131.08731874848016 32.91139988248615 1.1526855 2 12 1
131.0855487432059 32.91148977448928 1.1526855 2 12 1
131.08864136232276 32.91301782238503 1.1526855 2 12 1
131.0283938487772 32.907538970432 1.4673427 2 12 1
131.0268123537997 32.90803150144286 1.4673427 2 12 1
131.02503626732505 32.90937370212484 1.4673427 2 12 1
131.02536480022232 32.90958327008304 1.4673427 2 12 1
131.02522961258924 32.90994067939634 1.4673427 2 12 0
131.02465271175146 32.91012302423297 1.4673427 2 12 0
131.02633392075103 32.910200768800706 1.4673427 2 12 1
130.90210046096016 32.79705180087819 2.7340906 1 5 0
130.90209799030842 32.79930628843649 2.7340906 1 5 0
130.90209551938108 32.801560775181834 2.7340906 1 5 0
130.90209304817813 32.803815261114146 2.7340906 1 5 0
130.90209057669955 32.80606974623345 2.7340906 1 5 0
130.90208810494534 32.80832423053967 2.7340906 1 5 0
130.9020856329154 32.81057871403279 2.7340906 1 5 0
130.90208316060978 32.81283319671279 2.7340906 1 5 0
130.9020806880284 32.815087678579644 2.7340906 1 5 0
130.90207821517126 32.817342159633334 2.7340906 1 5 0
130.9020757420383 32.81959663987379 2.7340906 1 5 0
130.90207326862952 32.821851119301 2.7340906 1 5 0
130.90207079494488 32.824105597914965 2.7340906 1 5 0
130.90206832098434 32.82636007571565 2.7340906 1 5 0
130.90206584674792 32.82861455270298 2.7340906 1 5 0
130.90206337223552 32.83086902887697 2.7340906 1 5 0
130.90206089744717 32.83312350423758 2.7340906 1 5 0
130.90205842238282 32.83537797878479 1.6592623 1 5 0
130.9020559470424 32.83763245251855 1.6592623 1 5 0
130.90205347142597 32.83988692543885 1.6592623 1 5 0
130.90205099553344 32.842141397545646 1.6592623 1 5 0
130.9020485193648 32.84439586883893 1.6592623 1 5 0
130.90204604292 32.84665033931866 1.6592623 1 5 0
130.90204356619904 32.8489048089848 1.6592623 1 5 0
130.90204108920187 32.85115927783734 1.6592623 1 1 0
130.90203861192848 32.85341374587624 1.6592623 1 1 0
130.90203613437885 32.85566821310149 1.6592623 1 1 0
130.9020336565529 32.857922679513045 1.6592623 1 1 0
130.90203117845064 32.86017714511085 1.6592623 1 1 0
130.90202870007207 32.862431609894934 1.6592623 1 1 0
130.9020262214171 32.86468607386521 1.6592623 1 1 0
130.90202374248574 32.86694053702169 1.6592623 1 1 0
130.90202126327793 32.86919499936434 1.6592623 1 1 0
130.9020187837937 32.87144946089312 1.6592623 1 1 0
130.90201630403297 32.873703921607984 1.6592623 1 1 0
130.90201382399573 32.87595838150896 2.2796893 1 1 0
130.90201134368195 32.87821284059597 2.2796893 1 1 0
130.90200886309157 32.88046729886899 2.2796893 1 1 0
130.9020063822246 32.882721756328024 2.2796893 1 1 0
130.902003901081 32.88497621297302 2.2796893 1 1 0
130.90200141966076 32.88723066880392 2.2796893 1 1 0
130.90199893796384 32.889485123820755 2.2796893 1 1 0
130.9019964559902 32.891739578023476 2.2796893 1 1 0
130.9019939737398 32.89399403141202 2.2796893 1 1 0
130.90199149121264 32.89624848398642 2.2796893 1 1 0
130.9019890084087 32.898502935746585 2.2796893 1 1 0
130.9019865253279 32.90075738669252 2.2796893 1 1 0
130.90198404197025 32.90301183682419 2.2796893 1 1 0
130.9019815583357 32.90526628614156 2.2796893 1 1 0
130.90197907442428 32.90752073464463 2.2796893 1 1 0
130.90197659023588 32.909775182333334 2.2796893 1 1 0
130.9019741057705 32.91202962920768 2.2796893 1 1 0
130.90197162102817 32.9142840752676 2.2796893 1 1 0
130.90196913600874 32.91653852051309 2.2796893 1 1 0
130.9019666507123 32.91879296494412 3.3387508 1 1 0
130.90196416513876 32.92104740856067 3.3387508 1 1 0
130.90196167928812 32.92330185136268 3.3387508 1 1 0
130.90195919316034 32.925556293350176 3.3387508 1 1 0
130.90195670675539 32.92781073452305 3.3387508 1 1 0
130.9019542200732 32.930065174881356 3.3387508 1 1 0
130.9019517331138 32.932319614425026 3.3387508 1 1 0
130.90194924587715 32.934574053154016 3.3387508 1 1 0
130.90194675836318 32.93682849106831 3.3387508 1 1 0
130.90194427057193 32.93908292816791 3.3387508 1 1 0
130.90194178250331 32.94133736445276 3.3387508 1 1 0
130.90193929415736 32.943591799922835 3.3387508 1 1 0
130.90193680553398 32.9458462345781 3.3387508 1 1 0
130.90193431663317 32.948100668418526 3.3387508 1 1 0
130.90193182745492 32.95035510144411 3.3387508 1 5 0
130.90192933799915 32.9526095336548 3.3387508 1 5 0
130.90192684826587 32.95486396505056 3.3387508 1 5 0
130.90192435825506 32.95711839563142 3.3387508 1 5 0
130.90192186796665 32.95937282539726 3.3325372 1 5 0
130.90191937740065 32.9616272543481 3.3325372 1 5 0
130.90191688655705 32.963881682483944 3.3325372 1 5 0
130.90191439543574 32.96613610980471 3.3325372 1 5 0
130.90191190403675 32.96839053631038 3.3325372 1 5 0
130.90190941236006 32.97064496200096 3.3325372 1 5 0
130.90190692040562 32.97289938687638 3.3325372 1 5 0
130.90190442817342 32.97515381093663 3.3325372 1 5 0
130.90190193566337 32.97740823418169 3.3325372 1 5 0
130.90189944287553 32.979662656611524 3.3325372 1 5 0
130.90189694980978 32.98191707822608 3.3325372 1 5 0
130.90189445646618 32.984171499025386 3.3325372 1 5 0
130.90189196284464 32.98642591900936 3.3325372 1 5 0
130.9018894689452 32.98868033817799 3.3325372 1 5 0
130.9018869747677 32.99093475653127 3.3325372 1 5 0
130.90188448031228 32.993189174069144 3.3325372 1 5 0
130.90188198557877 32.99544359079159 3.3325372 1 5 0
130.9018794905672 32.99769800669859 3.3325372 1 5 0
130.9047697656962 32.79705385902196 2.7340906 1 5 0
130.90476736240836 32.79930834675716 2.7340906 1 5 0
130.90476495885247 32.80156283367936 2.7340906 1 5 0
130.9047625550285 32.80381731978858 2.7340906 1 5 0
130.9047601509364 32.80607180508478 2.7340906 1 5 0
130.90475774657617 32.80832628956792 2.7340906 1 5 0
130.90475534194775 32.81058077323796 2.7340906 1 5 0
130.90475293705114 32.81283525609489 2.7340906 1 5 0
130.9047505318863 32.815089738138674 2.7340906 1 5 0
130.90474812645323 32.81734421936931 2.7340906 1 5 0
130.90474572075183 32.819598699786724 2.7340906 1 5 0
130.90474331478217 32.8218531793909 2.7340906 1 5 0
130.90474090854414 32.824107658181845 2.7340906 1 5 0
130.9047385020378 32.82636213615949 2.7340906 1 5 0
130.904736095263 32.82861661332384 2.7340906 1 5 0
130.9047336882198 32.830871089674815 2.7340906 1 5 0
130.90473128090815 32.83312556521242 2.7340906 1 5 0
130.90472887332803 32.835380039936645 1.6592623 1 5 0
130.90472646547943 32.83763451384745 1.6592623 1 5 0
130.9047240573623 32.83988898694477 1.6592623 1 5 0
130.90472164897656 32.84214345922863 1.6592623 1 5 0
130.9047192403223 32.844397930698975 1.6592623 1 5 0
130.90471683139938 32.84665240135576 1.6592623 1 5 0
130.90471442220783 32.84890687119896 1.6592623 1 5 0
130.90471201274758 32.85116134022859 1.6592623 1 1 0
130.9047096030187 32.85341580844457 1.6592623 1 1 0
130.90470719302104 32.85567027584692 1.6592623 1 1 0
130.90470478275466 32.85792474243558 1.6592623 1 1 0
130.90470237221945 32.86017920821049 1.6592623 1 1 0
130.9046999614155 32.862433673171694 1.6592623 1 1 0
130.90469755034266 32.864688137319106 1.6592623 1 1 0
130.90469513900098 32.86694260065273 1.6592623 1 1 0
130.9046927273904 32.869197063172514 1.6592623 1 1 0
130.90469031551092 32.87145152487845 1.6592623 1 1 0
130.90468790336246 32.8737059857705 1.6592623 1 1 0
130.90468549094507 32.87596044584865 2.2796893 1 1 0
130.90468307825864 32.87821490511284 2.2796893 1 1 0
130.90468066530318 32.880469363563066 2.2796893 1 1 0
130.9046782520787 32.88272382119929 2.2796893 1 1 0
130.9046758385851 32.88497827802149 2.2796893 1 1 0
130.9046734248224 32.88723273402963 2.2796893 1 1 0
130.90467101079054 32.88948718922369 2.2796893 1 1 0
130.90466859648953 32.89174164360364 2.2796893 1 1 0
130.9046661819193 32.89399609716943 2.2796893 1 1 0
130.90466376707988 32.89625054992107 2.2796893 1 1 0
130.90466135197119 32.89850500185851 2.2796893 1 1 0
130.9046589365932 32.90075945298171 2.2796893 1 1 0
130.90465652094593 32.90301390329067 2.2796893 1 1 0
130.9046541050293 32.90526835278533 2.2796893 1 1 0
130.90465168884333 32.9075228014657 2.2796893 1 1 0
130.90464927238796 32.90977724933171 2.2796893 1 1 0
130.90464685566315 32.91203169638338 2.2796893 1 1 0
130.9046444386689 32.91428614262063 2.2796893 1 1 0
130.90464202140518 32.916540588043446 2.2796893 1 1 0
130.90463960387197 32.918795032651836 3.3387508 1 1 0
130.90463718606924 32.92104947644572 3.3387508 1 1 0
130.9046347679969 32.923303919425095 3.3387508 1 1 0
130.904632349655 32.92555836158995 3.3387508 1 1 0
130.9046299310435 32.92781280294021 3.3387508 1 1 0
130.90462751216234 32.9300672434759 3.3387508 1 1 0
130.9046250930115 32.93232168319695 3.3387508 1 1 0
130.90462267359098 32.93457612210336 3.3387508 1 1 0
130.90462025390073 32.93683056019507 3.3387508 1 1 0
130.9046178339407 32.9390849974721 3.3387508 1 1 0
130.9046154137109 32.94133943393436 3.3387508 1 1 0
130.90461299321132 32.94359386958188 3.3387508 1 1 0
130.90461057244187 32.945848304414596 3.3387508 1 1 0
130.90460815140256 32.94810273843249 3.3387508 1 1 0
130.90460573009335 32.950357171635524 3.3387508 1 5 0
130.90460330851423 32.952611604023694 3.3387508 1 5 0
130.90460088666515 32.95486603559694 3.3387508 1 5 0
130.9045984645461 32.957120466355285 3.3387508 1 5 0
130.90459604215707 32.959374896298634 3.3325372 1 5 0
130.90459361949797 32.96162932542699 3.3325372 1 5 0
130.9045911965688 32.96388375374033 3.3325372 1 5 0
130.90458877336954 32.966138181238634 3.3325372 1 5 0
130.90458634990017 32.96839260792184 3.3325372 1 5 0
130.90458392616068 32.970647033789966 3.3325372 1 5 0
130.904581502151 32.97290145884293 3.3325372 1 5 0
130.90457907787112 32.97515588308076 3.3325372 1 5 0
130.90457665332102 32.97741030650339 3.3325372 1 5 0
130.90457422850062 32.9796647291108 3.3325372 1 5 0
130.90457180340997 32.98191915090297 3.3325372 1 5 0
130.904569378049 32.98417357187986 3.3325372 1 5 0
130.9045669524177 32.98642799204145 3.3325372 1 5 0
130.904564526516 32.988682411387686 3.3325372 1 5 0
130.90456210034392 32.9909368299186 3.3325372 1 5 0
130.9045596739014 32.99319124763411 3.3325372 1 5 0
130.90455724718845 32.99544566453419 3.3325372 1 5 0
130.90455482020502 32.99770008061884 3.3325372 1 5 0
130.90743907070024 32.79705586027344 2.7340906 1 5 0
130.90743673477638 32.79931034818061 2.7340906 1 5 0
130.90743439859196 32.801564835274824 2.7340906 1 5 0
130.90743206214697 32.80381932155604 2.7340906 1 5 0
130.90742972544138 32.80607380702425 2.7340906 1 5 0
130.90742738847516 32.80832829167942 2.7340906 1 5 0
130.90742505124825 32.810582775521496 2.7340906 1 5 0
130.90742271376072 32.812837258550466 2.7340906 1 5 0
130.90742037601248 32.8150917407663 2.7340906 1 5 0
130.90741803800347 32.817346222168986 2.7340906 1 5 0
130.90741569973372 32.81960070275846 2.7340906 1 5 0
130.90741336120314 32.82185518253472 2.7340906 1 5 0
130.9074110224118 32.82410966149775 2.7340906 1 5 0
130.90740868335956 32.82636413964749 2.7340906 1 5 0
130.9074063440465 32.8286186169839 2.7340906 1 5 1
130.90740400447254 32.830873093507016 2.7340906 1 5 0
130.90740166463763 32.83312756921675 2.7340906 1 5 0
130.9073993245418 32.83538204411308 1.6592623 1 5 0
130.90739698418497 32.83763651819602 1.6592623 1 5 0
130.90739464356713 32.83989099146548 1.6592623 1 5 0
130.9073923026883 32.84214546392148 1.6592623 1 5 0
130.90738996154838 32.84439993556398 1.6592623 1 5 0
130.90738762014738 32.84665440639293 1.6592623 1 5 0
130.9073852784853 32.84890887640833 1.6592623 1 5 0
130.90738293656202 32.851163345610125 1.6592623 1 1 0
130.9073805943776 32.853417813998306 1.6592623 1 1 0
130.907378251932 32.85567228157285 1.6592623 1 1 0
130.90737590922515 32.85792674833372 1.6592623 1 1 0
130.9073735662571 32.86018121428086 1.6592623 1 1 0
130.90737122302775 32.862435679414276 1.6592623 1 1 0
130.9073688795371 32.86469014373393 1.6592623 1 1 0
130.90736653578514 32.86694460723981 1.6592623 1 1 0
130.9073641917718 32.86919906993183 1.6592623 1 1 0
130.90736184749707 32.87145353181004 1.6592623 1 1 0
130.90735950296096 32.87370799287435 1.6592623 1 1 0
130.90735715816342 32.87596245312478 2.2796893 1 1 0
130.90735481310438 32.878216912561264 2.2796893 1 1 0
130.90735246778388 32.88047137118378 2.2796893 1 1 0
130.90735012220185 32.8827258289923 2.2796893 1 1 0
130.9073477763583 32.88498028598682 2.2796893 1 1 0
130.90734543025314 32.88723474216727 2.2796893 1 1 0
130.90734308388642 32.88948919753366 2.2796893 1 1 0
130.90734073725807 32.89174365208595 2.2796893 1 1 0
130.90733839036804 32.89399810582409 2.2796893 1 1 0
130.90733604321636 32.896252558748095 2.2796893 1 1 0
130.90733369580295 32.89850701085787 2.2796893 1 1 0
130.90733134812783 32.90076146215346 2.2796893 1 1 0
130.9073290001909 32.9030159126348 2.2796893 1 1 0
130.90732665199226 32.905270362301856 2.2796893 1 1 0
130.90732430353177 32.90752481115462 2.2796893 1 1 0
130.90732195480942 32.909779259193044 2.2796893 1 1 0
130.90731960582525 32.912033706417105 2.2796893 1 1 0
130.90731725657912 32.914288152826785 2.2796893 1 1 0
130.9073149070711 32.91654259842205 2.2796893 1 1 0
130.90731255730114 32.918797043202865 3.3387508 1 1 0
130.9073102072692 32.92105148716919 3.3387508 1 1 0
130.90730785697528 32.923305930321035 3.3387508 1 1 0
130.90730550641928 32.92556037265836 3.3387508 1 1 0
130.90730315560126 32.92781481418109 3.3387508 1 1 0
130.90730080452113 32.93006925488926 3.3387508 1 1 0
130.9072984531789 32.93232369478281 3.3387508 1 1 0
130.9072961015745 32.93457813386173 3.3387508 1 1 0
130.90729374970797 32.93683257212593 3.3387508 1 1 0
130.90729139757926 32.93908700957549 3.3387508 1 1 0
130.9072890451883 32.94134144621028 3.3387508 1 1 0
130.90728669253508 32.94359588203033 3.3387508 1 1 0
130.90728433961962 32.945850317035585 3.3387508 1 1 0
130.90728198644183 32.94810475122603 3.3387508 1 1 0
130.90727963300176 32.95035918460164 3.3387508 1 5 0
130.90727727929928 32.95261361716236 3.3387508 1 5 0
130.90727492533443 32.954868048908196 3.3387508 1 5 0
130.90727257110717 32.95712247983912 3.3387508 1 5 0
130.9072702166175 32.95937690995506 3.3325372 1 5 0
130.9072678618653 32.96163133925603 3.3325372 1 5 0
130.90726550685068 32.96388576774199 3.3325372 1 5 0
130.9072631515735 32.966140195412905 3.3325372 1 5 0
130.90726079603377 32.96839462226875 3.3325372 1 5 0
130.9072584402315 32.970649048309504 3.3325372 1 5 0
130.9072560841666 32.972903473535126 3.3325372 1 5 0
130.90725372783908 32.9751578979456 3.3325372 1 5 0
130.9072513712489 32.977412321540896 3.3325372 1 5 0
130.90724901439603 32.97966674432099 3.3325372 1 5 0
130.90724665728047 32.981921166285815 3.3325372 1 5 0
130.90724429990215 32.9841755874354 3.3325372 1 5 0
130.90724194226107 32.9864300077697 3.3325372 1 5 0
130.90723958435723 32.98868442728864 3.3325372 1 5 0
130.90723722619055 32.99093884599225 3.3325372 1 5 0
130.90723486776102 32.993193263880485 3.3325372 1 5 0
130.9072325090686 32.995447680953305 3.3325372 1 5 0
130.90723015011332 32.9977020972107 3.3325372 1 5 0
130.91010837596482 32.79705780463261 2.7340906 1 5 0
130.91010610740494 32.79931229270689 2.7340906 1 5 0
130.91010383859202 32.801566779968205 2.7340906 1 5 0
130.91010156952603 32.80382126641653 2.7340906 1 5 0
130.91009930020698 32.806075752051875 2.7340906 1 5 0
130.9100970306348 32.80833023687417 2.7340906 1 5 0
130.9100947608095 32.81058472088338 2.7340906 1 5 0
130.91009249073102 32.8128392040795 2.7340906 1 5 0
130.91009022039935 32.81509368646249 2.7340906 1 5 0
130.91008794981448 32.817348168032346 2.7340906 1 5 0
130.91008567897634 32.81960264878898 2.7340906 1 5 0
130.91008340788497 32.82185712873242 2.7340906 1 5 0
130.91008113654027 32.82411160786265 2.7340906 1 5 0
130.91007886494228 32.82636608617959 2.7340906 1 5 0
130.9100765930909 32.828620563683224 2.7340906 1 5 0
130.91007432098618 32.83087504037353 2.7340906 1 5 0
130.91007204862805 32.83312951625047 2.7340906 1 5 0
130.9100697760165 32.83538399131406 1.6592623 1 5 0
130.9100675031515 32.83763846556422 1.6592623 1 5 0
130.91006523003304 32.83989293900095 1.6592623 1 5 0
130.91006295666105 32.84214741162419 1.6592623 1 5 0
130.91006068303557 32.84440188343395 1.6592623 1 5 0
130.9100584091565 32.846656354430195 1.6592623 1 5 0
130.91005613502384 32.84891082461285 1.6592623 1 5 0
130.91005386063762 32.85116529398195 1.6592623 1 1 0
130.91005158599773 32.85341976253743 1.6592623 1 1 0
130.91004931110416 32.85567423027927 1.6592623 1 1 0
130.91004703595692 32.85792869720745 1.6592623 1 1 0
130.910044760556 32.86018316332191 1.6592623 1 1 0
130.91004248490128 32.862437628622665 1.6592623 1 1 0
130.91004020899285 32.86469209310967 1.6592623 1 1 0
130.91003793283062 32.86694655678287 1.6592623 1 1 0
130.91003565641455 32.86920101964227 1.6592623 1 1 0
130.91003337974468 32.87145548168784 1.6592623 1 1 0
130.91003110282088 32.87370994291952 1.6592623 1 1 0
130.91002882564322 32.87596440333733 2.2796893 1 1 0
130.91002654821162 32.87821886294119 2.2796893 1 1 0
130.9100242705261 32.88047332173111 2.2796893 1 1 0
130.91002199258656 32.88272777970704 2.2796893 1 1 0
130.91001971439306 32.88498223686897 2.2796893 1 1 0
130.91001743594552 32.88723669321684 2.2796893 1 1 0
130.9100151572439 32.889491148750665 2.2796893 1 1 0
130.91001287828823 32.89174560347038 2.2796893 1 1 0
130.91001059907845 32.89400005737598 2.2796893 1 1 0
130.91000831961452 32.89625451046744 2.2796893 1 1 0
130.91000603989647 32.898508962744685 2.2796893 1 1 0
130.91000375992422 32.90076341420774 2.2796893 1 1 0
130.91000147969774 32.90301786485656 2.2796893 1 1 0
130.90999919921703 32.9052723146911 2.2796893 1 1 0
130.90999691848205 32.90752676371136 2.2796893 1 1 0
130.9099946374928 32.90978121191729 2.2796893 1 1 0
130.9099923562492 32.91203565930887 2.2796893 1 1 0
130.90999007475128 32.91429010588607 2.2796893 1 1 0
130.90998779299898 32.91654455164887 2.2796893 1 1 0
130.90998551099233 32.918798996597204 3.3387508 1 1 0
130.90998322873122 32.921053440731086 3.3387508 1 1 0
130.90998094621565 32.923307884050494 3.3387508 1 1 0
130.90997866344563 32.925562326555365 3.3387508 1 1 0
130.9099763804211 32.92781676824568 3.3387508 1 1 0
130.90997409714205 32.93007120912143 3.3387508 1 1 0
130.90997181360842 32.93232564918257 3.3387508 1 1 0
130.90996952982024 32.934580088429065 3.3387508 1 1 0
130.90996724577747 32.93683452686089 3.3387508 1 1 0
130.90996496148003 32.93908896447804 3.3387508 1 1 0
130.90996267692793 32.94134340128046 3.3387508 1 1 0
130.90996039212115 32.94359783726815 3.3387508 1 1 0
130.90995810705968 32.94585227244104 3.3387508 1 1 0
130.90995582174347 32.94810670679914 3.3387508 1 1 0
130.90995353617248 32.95036114034241 3.3387508 1 5 0
130.9099512503467 32.9526155730708 3.3387508 1 5 0
130.9099489642661 32.954870004984286 3.3387508 1 5 0
130.9099466779307 32.95712443608289 3.3387508 1 5 0
130.90994439134036 32.95937886636653 3.3325372 1 5 0
130.90994210449517 32.961633295835185 3.3325372 1 5 0
130.90993981739504 32.963887724488856 3.3325372 1 5 0
130.90993753003997 32.966142152327485 3.3325372 1 5 0
130.90993524242992 32.968396579351044 3.3325372 1 5 0
130.90993295456488 32.97065100555954 3.3325372 1 5 0
130.9099306664448 32.97290543095289 3.3325372 1 5 0
130.90992837806968 32.97515985553111 3.3325372 1 5 0
130.90992608943947 32.97741427929416 3.3325372 1 5 0
130.90992380055414 32.979668702242016 3.3325372 1 5 0
130.9099215114137 32.98192312437463 3.3325372 1 5 0
130.90991922201806 32.984177545691985 3.3325372 1 5 0
130.90991693236728 32.98643196619406 3.3325372 1 5 0
130.90991464246127 32.98868638588082 3.3325372 1 5 0
130.90991235229998 32.99094080475223 3.3325372 1 5 0
130.9099100618835 32.99319522280829 3.3325372 1 5 0
130.90990777121166 32.995449640048925 3.3325372 1 5 0
130.90990548028455 32.99770405647415 3.3325372 1 5 0
130.91277768148242 32.79705969209944 2.7340906 1 5 0
130.91277548028654 32.79931418033593 2.7340906 1 5 0
130.91277327884515 32.80156866775947 2.7340906 1 5 0
130.9127710771582 32.80382315437002 2.7340906 1 5 0
130.9127688752257 32.8060776401676 2.7340906 1 5 0
130.9127666730476 32.808332125152134 2.7340906 1 5 0
130.91276447062387 32.81058660932359 2.7340906 1 5 0
130.9127622679545 32.81284109268198 2.7340906 1 5 0
130.91276006503946 32.81509557522723 2.7340906 1 5 0
130.91275786187873 32.81735005695935 2.7340906 1 5 0
130.91275565847226 32.81960453787828 2.7340906 1 5 0
130.91275345482003 32.82185901798402 2.7340906 1 5 0
130.91275125092207 32.824113497276514 2.7340906 1 5 0
130.9127490467783 32.826367975755765 2.7340906 1 5 0
130.91274684238869 32.828622453421715 2.7340906 1 5 0
130.91274463775326 32.83087693027436 2.7340906 1 5 0
130.9127424328719 32.833131406313626 2.7340906 1 5 0
130.9127402277447 32.835385881539544 1.6592623 1 5 0
130.91273802237154 32.83764035595207 1.6592623 1 5 0
130.91273581675247 32.839894829551135 1.6592623 1 5 0
130.9127336108874 32.84214930233673 1.6592623 1 5 0
130.9127314047763 32.84440377430889 1.6592623 1 5 0
130.9127291984192 32.84665824546749 1.6592623 1 5 0
130.91272699181607 32.84891271581253 1.6592623 1 5 0
130.91272478496683 32.85116718534403 1.6592623 1 1 0
130.91272257787148 32.853421654061904 1.6592623 1 1 0
130.91272037053002 32.85567612196616 1.6592623 1 1 0
130.9127181629424 32.857930589056764 1.6592623 1 1 0
130.91271595510864 32.860185055333645 1.6592623 1 1 0
130.91271374702862 32.86243952079683 1.6592623 1 1 0
130.9127115387024 32.86469398544627 1.6592623 1 1 0
130.9127093301299 32.866948449281935 1.6592623 1 1 0
130.91270712131114 32.86920291230379 1.6592623 1 1 0
130.91270491224608 32.871457374511834 1.6592623 1 1 0
130.9127027029347 32.87371183590597 1.6592623 1 1 0
130.91270049337695 32.87596629648627 2.2796893 1 1 0
130.9126982835728 32.87822075625263 2.2796893 1 1 0
130.91269607352226 32.88047521520504 2.2796893 1 1 0
130.91269386322526 32.882729673343476 2.2796893 1 1 0
130.91269165268181 32.88498413066793 2.2796893 1 1 0
130.9126894418919 32.88723858717833 2.2796893 1 1 0
130.91268723085548 32.889493042874676 2.2796893 1 1 0
130.91268501957254 32.89174749775694 2.2796893 1 1 0
130.91268280804297 32.894001951825075 2.2796893 1 1 0
130.91268059626688 32.89625640507909 2.2796893 1 1 0
130.91267838424415 32.8985108575189 2.2796893 1 1 0
130.9126761719748 32.90076530914453 2.2796893 1 1 0
130.91267395945877 32.90301975995592 2.2796893 1 1 0
130.91267174669605 32.905274209953056 2.2796893 1 1 0
130.91266953368662 32.90752865913591 2.2796893 1 1 0
130.91266732043044 32.909783107504445 2.2796893 1 1 0
130.91266510692753 32.91203755505863 2.2796893 1 1 0
130.9126628931778 32.914292001798465 2.2796893 1 1 0
130.91266067918127 32.916546447723874 2.2796893 1 1 0
130.9126584649379 32.91880089283487 3.3387508 1 1 0
130.91265625044764 32.921055337131385 3.3387508 1 1 0
130.91265403571055 32.92330978061343 3.3387508 1 1 0
130.91265182072647 32.92556422328098 3.3387508 1 1 0
130.91264960549546 32.927818665133955 3.3387508 1 1 0
130.9126473900175 32.93007310617239 3.3387508 1 1 0
130.91264517429255 32.932327546396195 3.3387508 1 1 0
130.91264295832056 32.9345819858054 3.3387508 1 1 0
130.91264074210156 32.936836424399935 3.3387508 1 1 0
130.91263852563546 32.93909086217978 3.3387508 1 1 0
130.91263630892226 32.941345299144935 3.3387508 1 1 0
130.91263409196193 32.94359973529535 3.3387508 1 1 0
130.91263187475448 32.94585417063095 3.3387508 1 1 0
130.91262965729985 32.948108605151795 3.3387508 1 1 0
130.912627439598 32.950363038857816 3.3387508 1 5 0
130.91262522164897 32.952617471748965 3.3387508 1 5 0
130.91262300345264 32.95487190382523 3.3387508 1 5 0
130.91262078500907 32.957126335086606 3.3387508 1 5 0
130.91261856631814 32.959380765533005 3.3325372 1 5 0
130.91261634737992 32.96163519516446 3.3325372 1 5 0
130.91261412819438 32.963889623980926 3.3325372 1 5 0
130.91261190876142 32.96614405198237 3.3325372 1 5 0
130.91260968908108 32.96839847916875 3.3325372 1 5 0
130.9126074691533 32.97065290554005 3.3325372 1 5 0
130.91260524897805 32.972907331096245 3.3325372 1 5 0
130.91260302855537 32.975161755837306 3.3325372 1 5 0
130.91260080788513 32.977416179763196 3.3325372 1 5 0
130.9125985869674 32.9796706028739 3.3325372 1 5 0
130.91259636580207 32.98192502516938 3.3325372 1 5 0
130.91259414438917 32.984179446649605 3.3325372 1 5 0
130.91259192272867 32.98643386731457 3.3325372 1 5 0
130.91258970082055 32.98868828716421 3.3325372 1 5 0
130.91258747866473 32.99094270619852 3.3325372 1 5 0
130.91258525626125 32.99319712441748 3.3325372 1 5 0
130.91258303361005 32.995451541821026 3.3325372 1 5 0
130.91258081071112 32.99770595840917 3.3325372 1 5 0
130.9154469872455 32.79706152267394 2.7340906 1 5 0
130.91544485341365 32.79931601106774 2.7340906 1 5 0
130.9154427193438 32.80157049864861 2.7340906 1 5 0
130.91544058503592 32.8038249854165 2.7340906 1 5 0
130.91543845049003 32.806079471371405 2.7340906 1 5 0
130.915436315706 32.808333956513295 2.7340906 1 5 0
130.9154341806839 32.810588440842125 2.7340906 1 5 0
130.91543204542367 32.81284292435787 2.7340906 1 5 0
130.91542990992525 32.8150974070605 2.7340906 1 5 0
130.9154277741887 32.817351888950014 2.7340906 1 5 0
130.91542563821392 32.81960637002632 2.7340906 1 5 0
130.91542350200092 32.821860850289454 2.7340906 1 5 0
130.9154213655497 32.824115329739364 2.7340906 1 5 0
130.91541922886015 32.82636980837602 2.7340906 1 5 0
130.9154170919323 32.82862428619941 2.7340906 1 5 0
130.9154149547662 32.83087876320947 2.7340906 1 5 0
130.91541281736167 32.83313323940618 2.7340906 1 5 0
130.9154106797188 32.83538771478954 1.6592623 1 5 0
130.9154085418375 32.8376421893595 1.6592623 1 5 0
130.91540640371784 32.839896663116036 1.6592623 1 5 0
130.91540426535968 32.84215113605911 1.6592623 1 5 0
130.91540212676307 32.84440560818872 1.6592623 1 5 0
130.91539998792797 32.846660079504815 1.6592623 1 5 0
130.91539784885433 32.84891455000736 1.6592623 1 5 0
130.91539570954214 32.85116901969635 1.6592623 1 1 0
130.9153935699914 32.85342348857174 1.6592623 1 1 0
130.91539143020205 32.85567795663351 1.6592623 1 1 0
130.91538929017406 32.85793242388163 1.6592623 1 1 0
130.91538714990747 32.86018689031604 1.6592623 1 1 0
130.9153850094022 32.862441355936774 1.6592623 1 1 0
130.9153828686582 32.864695820743755 1.6592623 1 1 0
130.9153807276755 32.86695028473697 1.6592623 1 1 0
130.91537858645407 32.86920474791638 1.6592623 1 1 0
130.91537644499385 32.87145921028199 1.6592623 1 1 0
130.91537430329487 32.87371367183372 1.6592623 1 1 0
130.91537216135706 32.8759681325716 2.2796893 1 1 0
130.9153700191804 32.878222592495554 2.2796893 1 1 0
130.91536787676486 32.88047705160557 2.2796893 1 1 0
130.91536573411045 32.88273150990162 2.2796893 1 1 0
130.9153635912171 32.884985967383685 2.2796893 1 1 0
130.91536144808484 32.887240424051704 2.2796893 1 1 0
130.91535930471358 32.88949487990568 2.2796893 1 1 0
130.91535716110337 32.89174933494559 2.2796893 1 1 0
130.91535501725411 32.89400378917137 2.2796893 1 1 0
130.91535287316583 32.89625824258303 2.2796893 1 1 0
130.9153507288385 32.898512695180514 2.2796893 1 1 0
130.91534858427204 32.900767146963815 2.2796893 1 1 0
130.91534643946648 32.90302159793288 2.2796893 1 1 0
130.9153442944218 32.90527604808771 2.2796893 1 1 0
130.91534214913793 32.90753049742826 2.2796893 1 1 0
130.91534000361492 32.90978494595449 2.2796893 1 1 0
130.91533785785265 32.9120393936664 2.2796893 1 1 0
130.91533571185116 32.914293840563936 2.2796893 1 1 0
130.91533356561038 32.91654828664707 2.2796893 1 1 0
130.91533141913035 32.9188027319158 3.3387508 1 1 0
130.915329272411 32.92105717637007 3.3387508 1 1 0
130.9153271254523 32.92331162000987 3.3387508 1 1 0
130.91532497825423 32.925566062835166 3.3387508 1 1 0
130.91532283081682 32.92782050484589 3.3387508 1 1 0
130.91532068313998 32.93007494604211 3.3387508 1 1 0
130.9153185352237 32.9323293864237 3.3387508 1 1 0
130.91531638706792 32.93458382599069 3.3387508 1 1 0
130.9153142386727 32.93683826474301 3.3387508 1 1 0
130.91531209003796 32.93909270268069 3.3387508 1 1 0
130.9153099411637 32.94134713980364 3.3387508 1 1 0
130.91530779204984 32.94360157611187 3.3387508 1 1 0
130.91530564269644 32.945856011605315 3.3387508 1 1 0
130.9153034931034 32.94811044628399 3.3387508 1 1 0
130.91530134327076 32.950364880147845 3.3387508 1 5 0
130.91529919319845 32.95261931319684 3.3387508 1 5 0
130.91529704288644 32.954873745430966 3.3387508 1 5 0
130.9152948923347 32.95712817685021 3.3387508 1 5 0
130.91529274154328 32.9593826074545 3.3325372 1 5 0
130.9152905905121 32.96163703724385 3.3325372 1 5 0
130.91528843924107 32.96389146621819 3.3325372 1 5 0
130.91528628773028 32.966145894377526 3.3325372 1 5 0
130.91528413597968 32.968400321721816 3.3325372 1 5 0
130.9152819839892 32.970654748251036 3.3325372 1 5 0
130.91527983175882 32.97290917396514 3.3325372 1 5 0
130.91527767928855 32.975163598864135 3.3325372 1 5 0
130.91527552657834 32.97741802294797 3.3325372 1 5 0
130.9152733736282 32.97967244621662 3.3325372 1 5 0
130.91527122043803 32.98192686867006 3.3325372 1 5 0
130.9152690670079 32.98418129030824 3.3325372 1 5 0
130.9152669133377 32.98643571113118 3.3325372 1 5 0
130.91526475942746 32.98869013113879 3.3325372 1 5 0
130.91526260527715 32.990944550331086 3.3325372 1 5 0
130.91526045088673 32.99319896870804 3.3325372 1 5 0
130.91525829625618 32.995453386269595 3.3325372 1 5 0
130.91525614138547 32.997707803015736 3.3325372 1 5 0
130.91811629324656 32.79706329635606 3.7066615 1 5 0
130.91811422677878 32.7993177849023 3.7066615 1 5 0
130.9181121600805 32.8015722726356 3.7066615 1 5 0
130.91811009315174 32.803826759555946 3.7066615 1 5 0
130.9181080259924 32.80608124566331 3.7066615 1 5 0
130.91810595860252 32.80833573095765 3.7066615 1 5 0
130.91810389098202 32.81059021543895 3.7066615 1 5 0
130.91810182313094 32.812844699107174 3.7066615 1 5 0
130.91809975504924 32.81509918196228 3.7066615 1 5 0
130.91809768673687 32.81735366400428 3.7066615 1 5 0
130.9180956181938 32.8196081452331 3.7066615 1 5 0
130.91809354942004 32.82186262564873 3.7066615 1 5 0
130.91809148041557 32.82411710525116 3.7066615 1 5 0
130.9180894111803 32.82637158404034 3.7066615 1 5 0
130.91808734171428 32.82862606201625 3.7066615 1 5 0
130.91808527201746 32.83088053917884 3.7066615 1 5 0
130.9180832020898 32.83313501552809 3.7066615 1 5 0
130.9180811319313 32.835389491064014 3.068189 1 5 0
130.91807906154193 32.83764396578653 3.068189 1 5 0
130.91807699092166 32.839898439695624 3.068189 1 5 0
130.91807492007047 32.842152912791285 3.068189 1 5 0
130.91807284898834 32.844407385073474 3.068189 1 5 0
130.91807077767524 32.84666185654217 3.068189 1 5 0
130.91806870613115 32.848916327197294 3.068189 1 5 0
130.91806663435602 32.85117079703888 3.068189 1 1 0
130.9180645623499 32.85342526606691 3.068189 1 1 0
130.91806249011267 32.85567973428129 3.068189 1 1 0
130.9180604176444 32.857934201682035 3.068189 1 1 0
130.91805834494497 32.86018866826909 3.068189 1 1 0
130.91805627201444 32.86244313404245 3.068189 1 1 0
130.91805419885273 32.864697599002085 3.068189 1 1 0
130.91805212545987 32.866952063147956 3.068189 1 1 0
130.91805005183576 32.86920652648004 3.068189 1 1 0
130.91804797798042 32.871460988998315 3.068189 1 1 0
130.91804590389384 32.873715450702726 3.068189 1 1 0
130.918043829576 32.87596991159329 2.9872565 1 1 0
130.91804175502685 32.87822437166994 2.9872565 1 1 0
130.91803968024635 32.88047883093265 2.9872565 1 1 0
130.91803760523453 32.88273328938143 2.9872565 1 1 0
130.91803552999133 32.88498774701619 2.9872565 1 1 0
130.91803345451672 32.88724220383694 2.9872565 1 1 0
130.9180313788107 32.88949665984366 2.9872565 1 1 0
130.9180293028732 32.89175111503631 2.9872565 1 1 0
130.91802722670428 32.89400556941483 2.9872565 1 1 0
130.91802515030386 32.89626002297926 2.9872565 1 1 0
130.9180230736719 32.898514475729506 2.9872565 1 1 0
130.9180209968084 32.90076892766556 2.9872565 1 1 0
130.91801891971335 32.903023378787424 2.9872565 1 1 0
130.91801684238672 32.90527782909503 2.9872565 1 1 0
130.91801476482846 32.90753227858838 2.9872565 1 1 0
130.91801268703855 32.90978672726741 2.9872565 1 1 0
130.918010609017 32.91204117513212 2.9872565 1 1 0
130.91800853076373 32.91429562218247 2.9872565 1 1 0
130.9180064522788 32.91655006841844 2.9872565 1 1 0
130.91800437356213 32.91880451384 3.2573166 1 1 0
130.91800229461367 32.921058958447105 3.2573166 1 1 0
130.91800021543344 32.92331340223974 3.2573166 1 1 0
130.91799813602142 32.925567845217905 3.2573166 1 1 0
130.91799605637758 32.92782228738151 3.2573166 1 1 0
130.91799397650186 32.930076728730576 3.2573166 1 1 0
130.91799189639428 32.93233116926506 3.2573166 1 1 0
130.91798981605479 32.93458560898493 3.2573166 1 1 0
130.9179877354834 32.936840047890136 3.2573166 1 1 0
130.91798565468002 32.93909448598072 3.2573166 1 1 0
130.9179835736447 32.94134892325657 3.2573166 1 1 0
130.91798149237738 32.943603359717706 3.2573166 1 1 0
130.91797941087802 32.94585779536408 3.2573166 1 1 0
130.91797732914662 32.948112230195676 3.2573166 1 1 0
130.91797524718316 32.95036666421248 3.2573166 1 5 0
130.91797316498761 32.95262109741443 3.2573166 1 5 0
130.91797108255994 32.954875529801505 3.2573166 1 5 0
130.91796899990013 32.95712996137372 3.2573166 1 5 0
130.91796691700816 32.95938439213097 2.8231387 1 5 0
130.91796483388399 32.96163882207329 2.8231387 1 5 0
130.9179627505276 32.963893251200616 2.8231387 1 5 0
130.91796066693897 32.96614767951294 2.8231387 1 5 0
130.91795858311812 32.968402107010235 2.8231387 1 5 0
130.91795649906496 32.97065653369247 2.8231387 1 5 0
130.91795441477947 32.97291095955959 2.8231387 1 5 0
130.91795233026167 32.9751653846116 2.8231387 1 5 0
130.9179502455115 32.97741980884846 2.8231387 1 5 0
130.91794816052894 32.979674232270156 2.8231387 1 5 0
130.91794607531403 32.98192865487663 2.8231387 1 5 0
130.91794398986664 32.98418307666786 2.8231387 1 5 0
130.91794190418682 32.98643749764385 2.8231387 1 5 0
130.9179398182745 32.98869191780454 2.8231387 1 5 0
130.91793773212967 32.99094633714993 2.8231387 1 5 0
130.91793564575235 32.99320075567995 2.8231387 1 5 0
130.91793355914245 32.99545517339459 2.8231387 1 5 0
130.91793147229998 32.997709590293844 2.8231387 1 5 0
130.92078559947808 32.79706501314581 3.7066615 1 5 0
130.9207836003744 32.79931950183958 3.7066615 1 5 0
130.9207816010477 32.801573989720445 3.7066615 1 5 0
130.92077960149805 32.80382847678833 3.7066615 1 5 0
130.92077760172535 32.80608296304326 3.7066615 1 5 0
130.92077560172962 32.808337448485176 3.7066615 1 5 0
130.9207736015108 32.810591933114054 3.7066615 1 5 0
130.9207716010689 32.81284641692985 3.7066615 1 5 0
130.92076960040387 32.81510089993255 3.7066615 1 5 0
130.92076759951573 32.81735538212216 3.7066615 1 5 0
130.92076559840442 32.81960986349859 3.7066615 1 5 0
130.92076359706988 32.82186434406184 3.7066615 1 5 0
130.92076159551218 32.82411882381188 3.7066615 1 5 0
130.92075959373122 32.826373302748685 3.7066615 1 5 0
130.92075759172704 32.828627780872225 3.7066615 1 5 0
130.92075558949955 32.83088225818247 3.7066615 1 5 0
130.92075358704878 32.83313673467937 3.7066615 1 5 0
130.92075158437467 32.83539121036296 3.068189 1 5 0
130.92074958147722 32.837645685233134 3.068189 1 5 0
130.9207475783564 32.83990015928991 3.068189 1 5 0
130.92074557501218 32.84215463253325 3.068189 1 5 0
130.92074357144458 32.84440910496312 3.068189 1 5 0
130.92074156765352 32.84666357657951 3.068189 1 5 0
130.920739563639 32.848918047382334 3.068189 1 5 0
130.92073755940098 32.85117251737164 3.068189 1 1 0
130.92073555493945 32.85342698654736 3.068189 1 1 0
130.9207335502544 32.85568145490949 3.068189 1 1 0
130.9207315453458 32.85793592245796 3.068189 1 1 0
130.9207295402136 32.860190389192745 3.068189 1 1 0
130.92072753485783 32.862444855113864 3.068189 1 1 0
130.92072552927843 32.864699320221256 3.068189 1 1 0
130.92072352347537 32.866953784514884 3.068189 1 1 0
130.92072151744867 32.86920824799473 3.068189 1 1 0
130.92071951119826 32.87146271066079 3.068189 1 1 0
130.9207175047241 32.87371717251298 3.068189 1 1 0
130.92071549802625 32.87597163355133 2.9872565 1 1 0
130.92071349110464 32.87822609377578 2.9872565 1 1 0
130.9207114839592 32.880480553186295 2.9872565 1 1 0
130.92070947659 32.88273501178286 2.9872565 1 1 0
130.9207074689969 32.88498946956547 2.9872565 1 1 0
130.92070546118003 32.88724392653404 2.9872565 1 1 0
130.92070345313925 32.889498382688586 2.9872565 1 1 0
130.92070144487457 32.891752838029085 2.9872565 1 1 0
130.92069943638595 32.89400729255546 2.9872565 1 1 0
130.9206974276734 32.89626174626774 2.9872565 1 1 0
130.92069541873687 32.89851619916583 2.9872565 1 1 0
130.92069340957636 32.900770651249786 2.9872565 1 1 0
130.9206914001918 32.90302510251951 2.9872565 1 1 0
130.92068939058322 32.905279552975 2.9872565 1 1 0
130.92068738075056 32.907534002616245 2.9872565 1 1 0
130.92068537069386 32.909788451443184 2.9872565 1 1 0
130.92068336041302 32.91204289945579 2.9872565 1 1 0
130.92068134990805 32.91429734665407 2.9872565 1 1 0
130.92067933917895 32.91655179303796 2.9872565 1 1 0
130.92067732822562 32.91880623860744 3.2573166 1 1 0
130.92067531704814 32.92106068336249 3.2573166 1 1 0
130.9206733056464 32.92331512730308 3.2573166 1 1 0
130.92067129402042 32.92556957042918 3.2573166 1 1 0
130.92066928217017 32.927824012740736 3.2573166 1 1 0
130.92066727009563 32.93007845423778 3.2573166 1 1 0
130.92066525779677 32.93233289492024 3.2573166 1 1 0
130.92066324527357 32.934587334788084 3.2573166 1 1 0
130.92066123252602 32.93684177384128 3.2573166 1 1 0
130.92065921955404 32.939096212079846 3.2573166 1 1 0
130.9206572063577 32.941350649503704 3.2573166 1 1 0
130.9206551929369 32.94360508611287 3.2573166 1 1 0
130.92065317929163 32.94585952190726 3.2573166 1 1 0
130.92065116542193 32.948113956886885 3.2573166 1 1 0
130.92064915132767 32.95036839105171 3.2573166 1 5 0
130.9206471370089 32.9526228244017 3.2573166 1 5 0
130.92064512246557 32.954877256936825 3.2573166 1 5 0
130.92064310769769 32.957131688657086 3.2573166 1 5 0
130.9206410927052 32.9593861195624 2.8231387 1 5 0
130.92063907748812 32.96164054965279 2.8231387 1 5 0
130.92063706204635 32.963894978928195 2.8231387 1 5 0
130.92063504637994 32.96614940738861 2.8231387 1 5 0
130.92063303048883 32.968403835033996 2.8231387 1 5 0
130.92063101437301 32.970658261864315 2.8231387 1 5 0
130.92062899803247 32.97291268787954 2.8231387 1 5 0
130.92062698146714 32.97516711307967 2.8231387 1 5 0
130.92062496467705 32.97742153746467 2.8231387 1 5 0
130.92062294766217 32.979675961034474 2.8231387 1 5 0
130.92062093042242 32.98193038378909 2.8231387 1 5 0
130.92061891295782 32.98418480572848 2.8231387 1 5 0
130.92061689526838 32.98643922685262 2.8231387 1 5 0
130.920614877354 32.98869364716145 2.8231387 1 5 0
130.92061285921474 32.990948066654994 2.8231387 1 5 0
130.92061084085051 32.99320248533319 2.8231387 1 5 0
130.9206088222613 32.995456903196036 2.8231387 1 5 0
130.92060680344713 32.99771132024347 2.8231387 1 5 0
130.92345490593257 32.79706667304315 3.7066615 1 5 0
130.923452974193 32.79932116187958 3.7066615 1 5 0
130.92345104223796 32.801575649903086 3.7066615 1 5 0
130.92344911006742 32.80383013711365 3.7066615 1 5 0
130.92344717768137 32.80608462351125 3.7066615 1 5 0
130.9234452450798 32.80833910909586 3.7066615 1 5 0
130.92344331226266 32.81059359386741 3.7066615 1 5 0
130.92344137922996 32.81284807782592 3.7066615 1 5 0
130.92343944598164 32.81510256097132 3.7066615 1 5 0
130.92343751251772 32.81735704330363 3.7066615 1 5 0
130.92343557883817 32.81961152482277 3.7066615 1 5 0
130.92343364494295 32.82186600552874 3.7066615 1 5 0
130.92343171083203 32.824120485421524 3.7066615 1 5 0
130.92342977650543 32.82637496450106 3.7066615 1 5 0
130.92342784196305 32.828629442767344 3.7066615 1 5 0
130.92342590720494 32.83088392022034 3.7066615 1 5 0
130.9234239722311 32.83313839686 3.7066615 1 5 0
130.92342203704138 32.83539287268634 3.068189 1 5 0
130.9234201016359 32.8376473476993 3.068189 1 5 0
130.92341816601456 32.83990182189885 3.068189 1 5 0
130.92341623017734 32.84215629528498 3.068189 1 5 0
130.92341429412423 32.84441076785765 3.068189 1 5 0
130.92341235785526 32.846665239616826 3.068189 1 5 0
130.9234104213703 32.84891971056248 3.068189 1 5 0
130.9234084846694 32.851174180694585 3.068189 1 1 0
130.92340654775253 32.85342865001312 3.068189 1 1 0
130.92340461061968 32.85568311851807 3.068189 1 1 0
130.9234026732708 32.85793758620939 3.068189 1 1 0
130.92340073570585 32.860192053087005 3.068189 1 1 0
